  39.106  128.039   37.851
  39.515  128.039   36.908
  39.911  128.039   35.962
  40.287  128.039   35.009
  40.649  128.039   34.048
  41.010  128.039   33.084
  41.365  128.039   32.122
  41.703  128.039   31.161
  42.016  128.039   30.193
  42.296  128.039   29.212
  42.553  128.039   28.217
  42.799  128.039   27.217
  43.042  128.039   26.214
  43.282  128.039   25.212
  43.496  128.039   24.208
  43.707  128.039   23.203
  43.918  128.039   22.197
  44.126  128.039   21.192
  44.325  128.039   20.186
  44.512  128.039   19.179
  44.690  128.039   18.167
  44.862  128.039   17.153
  45.031  128.039   16.136
  45.199  128.039   15.120
  45.369  128.039   14.105
  45.545  128.039   13.091
  45.730  128.039   12.079
  45.924  128.039   11.068
  46.121  128.039   10.059
  46.318  128.039    9.049
  46.506  128.039    8.038
  46.676  128.039    7.026
  46.837  128.039    6.012
  46.984  128.039    4.997
  47.140  128.039    3.979
  47.297  128.039    2.960
  47.413  128.039    1.938
  47.513  128.039    0.913
  47.595  128.039   -0.113
  47.662  128.039   -1.140
  47.713  128.039   -2.167
  47.744  128.039   -3.195
  47.744  128.039   -4.223
  47.729  128.039   -5.250
  47.670  128.039   -6.273
  47.551  128.039   -7.286
  47.389  128.039   -8.292
  47.146  128.039   -9.279
  46.826  128.039  -10.242
  46.446  128.039  -11.172
  45.992  128.039  -12.064
  45.440  128.039  -12.913
  44.811  128.039  -13.710
  44.115  128.039  -14.449
  43.316  128.039  -15.114
  42.526  128.039  -15.701
  41.645  128.039  -16.189
  40.714  128.039  -16.579
  39.750  128.039  -16.873
  38.761  128.039  -17.086
  37.758  128.039  -17.229
  36.754  128.039  -17.319
  35.734  128.039  -17.373
  34.709  128.039  -17.406
  33.685  128.039  -17.428
  32.661  128.039  -17.445
  31.612  128.039  -17.461
  30.585  128.039  -17.476
  29.541  128.039  -17.490
  28.508  128.039  -17.504
  27.487  128.039  -17.518
  26.463  128.039  -17.532
  25.438  128.039  -17.545
  24.412  128.039  -17.557
  23.394  128.039  -17.570
  22.361  128.039  -17.583
  21.311  128.039  -17.595
  20.274  128.039  -17.604
  19.244  128.039  -17.606
  18.209  128.039  -17.608
  17.175  128.039  -17.606
  16.147  128.039  -17.603
  15.117  128.039  -17.602
  14.085  128.039  -17.602
  13.055  128.039  -17.606
  12.020  128.039  -17.614
  10.991  128.039  -17.619
   9.962  128.039  -17.619
   8.932  128.039  -17.610
   7.904  128.039  -17.597
   6.878  128.039  -17.561
   5.870  128.039  -17.507
   4.882  128.039  -17.427
   3.918  128.039  -17.328
   3.000  128.039  -17.200
   2.107  128.039  -17.050
   1.240  128.039  -16.883
   0.391  128.039  -16.705
  -0.454  128.039  -16.516
  -1.297  128.039  -16.321
  -2.143  128.039  -16.113
  -2.984  128.039  -15.904
  -3.832  128.039  -15.692
  -4.686  128.039  -15.471
  -5.539  128.039  -15.262
  -6.392  128.039  -15.042
  -7.242  128.039  -14.821
  -8.089  128.039  -14.599
  -8.940  128.039  -14.371
  -9.782  128.039  -14.132
 -10.623  128.039  -13.895
 -11.505  128.039  -13.649
 -12.294  128.039  -13.395
 -13.122  128.039  -13.136
 -13.943  128.039  -12.866
 -14.758  128.039  -12.565
 -15.567  128.039  -12.253
 -16.368  128.039  -11.918
 -17.159  128.039  -11.556
 -17.944  128.039  -11.181
 -18.721  128.039  -10.788
 -19.489  128.039  -10.372
 -20.248  128.039   -9.928
 -20.989  128.039   -9.462
 -21.710  128.039   -8.970
 -22.415  128.039   -8.453
 -23.105  128.039   -7.920
 -23.783  128.039   -7.367
 -24.445  128.039   -6.793
 -25.102  128.039   -6.220
 -25.747  128.039   -5.633
 -26.384  128.039   -5.038
 -27.014  128.039   -4.436
 -27.636  128.039   -3.826
 -28.249  128.039   -3.206
 -28.851  128.039   -2.574
 -29.442  128.039   -1.928
 -30.019  128.039   -1.269
 -30.582  128.039   -0.596
 -31.127  128.039    0.087
 -31.655  128.039    0.783
 -32.163  128.039    1.488
 -32.672  128.039    2.202
 -33.170  128.039    2.921
 -33.661  128.039    3.648
 -34.142  128.039    4.380
 -34.610  128.039    5.116
 -35.057  128.039    5.852
 -35.480  128.039    6.609
 -35.894  128.039    7.388
 -36.264  128.039    8.179
 -36.598  128.039    8.987
 -36.898  128.039    9.808
 -37.166  128.039   10.640
 -37.405  128.039   11.480
 -37.621  128.039   12.325
 -37.816  128.039   13.174
 -37.993  128.039   14.028
 -38.151  128.039   14.885
 -38.291  128.039   15.747
 -38.414  128.039   16.612
 -38.519  128.039   17.479
 -38.603  128.039   18.349
 -38.667  128.039   19.221
 -38.711  128.039   20.094
 -38.736  128.039   20.967
 -38.736  128.039   21.841
 -38.722  128.039   22.715
 -38.713  128.039   23.589
 -38.689  128.039   24.463
 -38.655  128.039   25.337
 -38.617  128.039   26.211
 -38.576  128.039   27.084
 -38.533  128.039   27.957
 -38.488  128.039   28.831
 -38.442  128.039   29.704
 -38.394  128.039   30.577
 -38.344  128.039   31.450
 -38.291  128.039   32.323
 -38.237  128.039   33.195
 -38.181  128.039   34.071
 -38.124  128.039   34.967
 -38.067  128.039   35.888
 -38.007  128.039   36.850
 -38.007  129.011   36.333
 -37.947  129.011   37.461
 -37.874  129.011   38.629
 -37.803  129.011   39.823
 -37.739  129.011   41.041
 -37.680  129.011   42.267
 -37.643  129.011   43.490
 -37.589  129.011   44.713
 -37.535  129.011   45.990
 -37.490  129.011   47.156
 -37.440  129.011   48.378
 -37.375  129.011   49.601
 -37.303  129.011   50.819
 -37.240  129.011   52.042
 -37.185  129.011   53.264
 -37.120  129.011   54.486
 -37.038  129.011   55.707
 -36.949  129.011   56.928
 -36.864  129.011   58.149
 -36.787  129.011   59.369
 -36.714  129.011   60.588
 -36.644  129.011   61.809
 -36.582  129.011   63.031
 -36.529  129.011   64.254
 -36.480  129.011   65.475
 -36.427  129.011   66.696
 -36.361  129.011   67.916
 -36.285  129.011   69.135
 -36.199  129.011   70.354
 -36.099  129.011   71.572
 -35.976  129.011   72.787
 -35.835  129.011   74.000
 -35.691  129.011   75.214
 -35.553  129.011   76.420
 -35.407  129.011   77.619
 -35.234  129.011   78.818
 -35.018  129.011   80.013
 -34.753  129.011   81.201
 -34.453  129.011   82.381
 -34.133  129.011   83.544
 -33.800  129.011   84.715
 -33.452  129.011   85.888
 -33.087  129.011   87.056
 -32.706  129.011   88.216
 -32.328  129.011   89.366
 -31.963  129.011   90.515
 -31.610  129.011   91.677
 -31.264  129.011   92.849
 -30.919  129.011   94.017
 -30.562  129.011   95.176
 -30.184  129.011   96.325
 -29.786  129.011   97.465
 -29.378  129.011   98.606
 -28.963  129.011   99.754
 -28.276  129.011  100.906
 -27.705  129.011  101.940
 -26.870  129.011  101.940
 -26.035  129.011  101.940
 -25.200  129.011  101.940
 -24.366  129.011  101.940
 -23.531  129.011  101.940
 -22.696  129.011  101.940
 -21.861  129.011  101.940
 -21.026  129.011  101.940
 -20.192  129.011  101.940
 -19.357  129.011  101.940
 -18.522  129.011  101.940
 -17.687  129.011  101.940
 -16.852  129.011  101.940
 -16.017  129.011  101.940
 -15.183  129.011  101.940
 -14.364  129.011  101.940
 -13.552  129.011  101.940
 -12.741  129.011  101.940
 -11.930  129.011  101.940
 -11.118  129.011  101.940
 -10.307  129.011  101.940
  -9.495  129.011  101.940
  -8.684  129.011  101.940
  -7.872  129.011  101.940
  -7.061  129.011  101.940
  -6.222  129.011  101.940
  -5.374  129.011  101.940
  -4.526  129.011  101.940
  -3.680  129.011  101.940
  -2.832  129.011  101.940
  -1.984  129.011  101.940
  -1.136  129.011  101.940
  -0.309  129.011  101.940
   0.517  129.011  101.940
   1.344  129.011  101.940
   2.171  129.011  101.940
   2.997  129.011  101.940
   3.824  129.011  101.940
   4.650  129.011  101.940
   5.477  129.011  101.940
   6.304  129.011  101.940
   7.130  129.011  101.940
   7.957  129.011  101.940
   8.783  129.011  101.940
   9.610  129.011  101.940
  10.436  129.011  101.940
  11.263  129.011  101.940
  12.089  129.011  101.940
  12.916  129.011  101.940
  13.742  129.011  101.940
  14.568  129.011  101.940
  15.395  129.011  101.940
  16.221  129.011  101.940
  17.047  129.011  101.940
  17.474  129.011  101.940
  17.876  129.011  100.848
  18.400  129.011   99.850
  18.774  129.011   98.858
  19.009  129.011   97.872
  19.272  129.011   96.893
  19.562  129.011   95.928
  19.868  129.011   94.977
  20.177  129.011   94.037
  20.484  129.011   93.094
  20.788  129.011   92.140
  21.098  129.011   91.176
  21.393  129.011   90.206
  21.697  129.011   89.244
  21.998  129.011   88.280
  22.292  129.011   87.318
  22.580  129.011   86.343
  22.868  129.011   85.361
  23.161  129.011   84.393
  23.456  129.011   83.440
  23.746  129.011   82.481
  24.030  129.011   81.513
  24.311  129.011   80.549
  24.584  129.011   79.597
  24.847  129.011   78.635
  25.107  129.011   77.649
  25.371  129.011   76.660
  25.635  129.011   75.670
  25.892  129.011   74.676
  26.139  129.011   73.681
  26.383  129.011   72.690
  26.634  129.011   71.700
  26.897  129.011   70.714
  27.171  129.011   69.755
  27.453  129.011   68.807
  27.720  129.011   67.819
  27.957  129.011   66.823
  28.184  129.011   65.828
  28.428  129.011   64.840
  28.701  129.011   63.857
  28.989  129.011   62.881
  29.280  129.011   61.908
  29.588  129.011   60.937
  29.855  129.011   59.963
  30.146  129.011   58.988
  30.453  129.011   58.016
  30.778  129.011   57.049
  31.119  129.011   56.089
  31.479  129.011   55.134
  31.853  129.011   54.182
  32.232  129.011   53.229
  32.603  129.011   52.281
  32.985  129.011   51.337
  33.373  129.011   50.391
  33.782  129.011   49.447
  34.213  129.011   48.511
  34.657  129.011   47.586
  35.104  129.011   46.665
  35.543  129.011   45.736
  35.970  129.011   44.804
  36.390  129.011   43.868
  36.822  129.011   42.929
  37.260  129.011   41.993
  37.695  129.011   41.057
  38.123  129.011   40.119
  38.548  129.011   39.179
  38.973  129.011   38.241
  39.393  129.011   37.302
  39.803  129.011   36.364
  40.194  129.011   35.424
  40.559  129.011   34.473
  40.895  129.011   33.512
  41.222  129.011   32.545
  41.549  129.011   31.580
  41.865  129.011   30.616
  42.164  129.011   29.647
  42.438  129.011   28.667
  42.687  129.011   27.679
  42.919  129.011   26.685
  43.143  129.011   25.688
  43.361  129.011   24.690
  43.574  129.011   23.691
  43.782  129.011   22.690
  43.986  129.011   21.688
  44.185  129.011   20.687
  44.381  129.011   19.686
  44.572  129.011   18.684
  44.757  129.011   17.679
  44.936  129.011   16.673
  45.111  129.011   15.667
  45.286  129.011   14.660
  45.465  129.011   13.653
  45.647  129.011   12.648
  45.835  129.011   11.644
  46.030  129.011   10.642
  46.228  129.011    9.641
  46.425  129.011    8.640
  46.614  129.011    7.638
  46.795  129.011    6.633
  46.971  129.011    5.627
  47.140  129.011    4.619
  47.302  129.011    3.609
  47.450  129.011    2.596
  47.582  129.011    1.582
  47.688  129.011    0.564
  47.772  129.011   -0.455
  47.834  129.011   -1.475
  47.877  129.011   -2.496
  47.905  129.011   -3.517
  47.905  129.011   -4.538
  47.887  129.011   -5.557
  47.771  129.011   -6.573
  47.670  129.011   -7.579
  47.490  129.011   -8.574
  47.228  129.011   -9.550
  46.893  129.011  -10.502
  46.484  129.011  -11.422
  46.000  129.011  -12.303
  45.441  129.011  -13.138
  44.812  129.011  -13.919
  44.116  129.011  -14.638
  43.316  129.011  -15.281
  42.526  129.011  -15.845
  41.645  129.011  -16.306
  40.714  129.011  -16.670
  39.750  129.011  -16.945
  38.761  129.011  -17.136
  37.758  129.011  -17.263
  36.754  129.011  -17.340
  35.735  129.011  -17.386
  34.710  129.011  -17.415
  33.686  129.011  -17.434
  32.662  129.011  -17.450
  31.612  129.011  -17.464
  30.596  129.011  -17.478
  29.580  129.011  -17.491
  28.565  129.011  -17.504
  27.549  129.011  -17.518
  26.534  129.011  -17.531
  25.511  129.011  -17.544
  24.461  129.011  -17.557
  23.411  129.011  -17.569
  22.372  129.011  -17.582
  21.345  129.011  -17.594
  20.397  129.011  -17.603
  19.302  129.011  -17.605
  18.289  129.011  -17.606
  17.277  129.011  -17.603
  16.330  129.011  -17.600
  15.315  129.011  -17.593
  14.297  129.011  -17.591
  13.281  129.011  -17.591
  12.267  129.011  -17.597
  11.246  129.011  -17.604
  10.226  129.011  -17.604
   9.204  129.011  -17.597
   8.185  129.011  -17.582
   7.174  129.011  -17.547
   6.175  129.011  -17.494
   5.195  129.011  -17.416
   4.238  129.011  -17.318
   3.325  129.011  -17.194
   2.436  129.011  -17.047
   1.566  129.011  -16.883
   0.713  129.011  -16.705
  -0.136  129.011  -16.516
  -0.984  129.011  -16.321
  -1.839  129.011  -16.113
  -2.685  129.011  -15.906
  -3.530  129.011  -15.697
  -4.440  129.011  -15.475
  -5.219  129.011  -15.267
  -6.061  129.011  -15.048
  -6.901  129.011  -14.826
  -7.732  129.011  -14.599
  -8.571  129.011  -14.370
  -9.407  129.011  -14.132
 -10.242  129.011  -13.893
 -11.075  129.011  -13.646
 -11.905  129.011  -13.395
 -12.730  129.011  -13.136
 -13.554  129.011  -12.869
 -14.374  129.011  -12.581
 -15.188  129.011  -12.276
 -15.995  129.011  -11.947
 -16.789  129.011  -11.588
 -17.573  129.011  -11.219
 -18.343  129.011  -10.829
 -19.100  129.011  -10.415
 -19.850  129.011   -9.978
 -20.588  129.011   -9.520
 -21.309  129.011   -9.037
 -22.015  129.011   -8.531
 -22.708  129.011   -8.007
 -23.389  129.011   -7.462
 -24.057  129.011   -6.898
 -24.711  129.011   -6.331
 -25.358  129.011   -5.751
 -25.999  129.011   -5.164
 -26.635  129.011   -4.571
 -27.267  129.011   -3.971
 -27.889  129.011   -3.363
 -28.496  129.011   -2.740
 -29.084  129.011   -2.104
 -29.657  129.011   -1.454
 -30.219  129.011   -0.789
 -30.769  129.011   -0.117
 -31.302  129.011    0.568
 -31.821  129.011    1.265
 -32.332  129.011    1.971
 -32.834  129.011    2.682
 -33.331  129.011    3.401
 -33.822  129.011    4.124
 -34.302  129.011    4.850
 -34.768  129.011    5.579
 -35.214  129.011    6.325
 -35.633  129.011    7.087
 -36.020  129.011    7.862
 -36.374  129.011    8.657
 -36.696  129.011    9.466
 -36.987  129.011   10.287
 -37.250  129.011   11.118
 -37.484  129.011   11.954
 -37.693  129.011   12.796
 -37.877  129.011   13.643
 -38.043  129.011   14.493
 -38.193  129.011   15.347
 -38.319  129.011   16.205
 -38.421  129.011   17.066
 -38.519  129.011   17.930
 -38.603  129.011   18.795
 -38.664  129.011   19.662
 -38.697  129.011   20.530
 -38.713  129.011   21.399
 -38.713  129.011   22.268
 -38.689  129.011   23.136
 -38.666  129.011   24.005
 -38.652  129.011   24.874
 -38.616  129.011   25.743
 -38.575  129.011   26.611
 -38.533  129.011   27.479
 -38.488  129.011   28.347
 -38.442  129.011   29.215
 -38.394  129.011   30.083
 -38.344  129.011   30.951
 -38.291  129.011   31.818
 -38.237  129.011   32.686
 -38.181  129.011   33.557
 -38.124  129.011   34.451
 -38.067  129.011   35.372
 -38.007  129.011   36.333
 -37.980  129.983   35.820
 -37.918  129.983   36.945
 -37.859  129.983   38.106
 -37.786  129.983   39.297
 -37.709  129.983   40.514
 -37.645  129.983   41.739
 -37.589  129.983   42.961
 -37.535  129.983   44.182
 -37.478  129.983   45.439
 -37.394  129.983   46.622
 -37.321  129.983   47.844
 -37.259  129.983   49.066
 -37.191  129.983   50.285
 -37.119  129.983   51.508
 -37.045  129.983   52.731
 -36.968  129.983   53.953
 -36.888  129.983   55.174
 -36.799  129.983   56.395
 -36.698  129.983   57.615
 -36.595  129.983   58.833
 -36.503  129.983   60.052
 -36.423  129.983   61.273
 -36.345  129.983   62.494
 -36.262  129.983   63.714
 -36.177  129.983   64.934
 -36.099  129.983   66.154
 -36.028  129.983   67.374
 -35.953  129.983   68.593
 -35.863  129.983   69.811
 -35.748  129.983   71.028
 -35.607  129.983   72.242
 -35.457  129.983   73.455
 -35.319  129.983   74.665
 -35.193  129.983   75.871
 -35.061  129.983   77.072
 -34.898  129.983   78.272
 -34.699  129.983   79.468
 -34.390  129.983   80.657
 -34.075  129.983   81.842
 -33.751  129.983   83.003
 -33.452  129.983   84.172
 -33.087  129.983   85.339
 -32.706  129.983   86.501
 -32.328  129.983   87.659
 -31.963  129.983   88.811
 -31.609  129.983   89.959
 -31.243  129.983   91.115
 -30.856  129.983   92.275
 -30.438  129.983   93.429
 -30.000  129.983   94.578
 -29.559  129.983   95.720
 -29.122  129.983   96.855
 -28.702  129.983   97.989
 -28.256  129.983   99.124
 -27.713  129.983  100.258
 -27.218  129.983  101.392
 -26.531  129.983  101.940
 -25.720  129.983  101.940
 -24.909  129.983  101.940
 -24.098  129.983  101.940
 -23.287  129.983  101.940
 -22.476  129.983  101.940
 -21.664  129.983  101.940
 -20.853  129.983  101.940
 -20.042  129.983  101.940
 -19.231  129.983  101.940
 -18.420  129.983  101.940
 -17.609  129.983  101.940
 -16.797  129.983  101.940
 -15.986  129.983  101.940
 -15.175  129.983  101.940
 -14.348  129.983  101.940
 -13.513  129.983  101.940
 -12.678  129.983  101.940
 -11.843  129.983  101.940
 -11.009  129.983  101.940
 -10.174  129.983  101.940
  -9.349  129.983  101.940
  -8.544  129.983  101.940
  -7.740  129.983  101.940
  -6.935  129.983  101.940
  -6.140  129.983  101.940
  -5.346  129.983  101.940
  -4.526  129.983  101.940
  -3.716  129.983  101.940
  -2.911  129.983  101.940
  -2.106  129.983  101.940
  -1.301  129.983  101.940
  -0.497  129.983  101.940
   0.308  129.983  101.940
   1.113  129.983  101.940
   1.918  129.983  101.940
   2.723  129.983  101.940
   3.527  129.983  101.940
   4.332  129.983  101.940
   5.137  129.983  101.940
   5.942  129.983  101.940
   6.747  129.983  101.940
   7.551  129.983  101.940
   8.356  129.983  101.940
   9.161  129.983  101.940
   9.971  129.983  101.940
  10.782  129.983  101.940
  11.593  129.983  101.940
  12.404  129.983  101.940
  13.216  129.983  101.940
  14.036  129.983  101.940
  14.871  129.983  101.940
  15.706  129.983  101.940
  16.461  129.983  101.940
  17.271  129.983  101.940
  17.473  129.983   99.981
  17.698  129.983   98.994
  17.950  129.983   98.013
  18.228  129.983   97.041
  18.530  129.983   96.080
  18.853  129.983   95.134
  19.189  129.983   94.196
  19.523  129.983   93.257
  19.853  129.983   92.319
  20.186  129.983   91.394
  20.640  129.983   90.440
  21.090  129.983   89.487
  21.391  129.983   88.516
  21.549  129.983   87.541
  21.737  129.983   86.571
  22.015  129.983   85.602
  22.310  129.983   84.631
  22.628  129.983   83.664
  22.944  129.983   82.699
  23.244  129.983   81.731
  23.533  129.983   80.758
  23.816  129.983   79.780
  24.091  129.983   78.797
  24.355  129.983   77.813
  24.613  129.983   76.827
  24.868  129.983   75.836
  25.119  129.983   74.843
  25.364  129.983   73.850
  25.611  129.983   72.860
  25.871  129.983   71.876
  26.151  129.983   70.897
  26.444  129.983   69.923
  26.736  129.983   68.949
  27.006  129.983   67.971
  27.256  129.983   66.985
  27.504  129.983   65.993
  27.765  129.983   64.999
  28.035  129.983   64.010
  28.349  129.983   63.031
  28.701  129.983   62.065
  28.989  129.983   61.106
  29.280  129.983   60.151
  29.606  129.983   59.192
  29.952  129.983   58.231
  30.300  129.983   57.274
  30.654  129.983   56.322
  31.047  129.983   55.374
  31.447  129.983   54.432
  31.852  129.983   53.491
  32.232  129.983   52.548
  32.610  129.983   51.613
  33.020  129.983   50.683
  33.447  129.983   49.752
  33.877  129.983   48.822
  34.324  129.983   47.903
  34.788  129.983   46.994
  35.257  129.983   46.095
  35.719  129.983   45.178
  36.164  129.983   44.249
  36.594  129.983   43.314
  37.022  129.983   42.377
  37.447  129.983   41.442
  37.873  129.983   40.510
  38.301  129.983   39.575
  38.729  129.983   38.639
  39.153  129.983   37.702
  39.569  129.983   36.766
  39.966  129.983   35.833
  40.345  129.983   34.897
  40.709  129.983   33.948
  41.048  129.983   32.985
  41.357  129.983   32.018
  41.652  129.983   31.051
  41.939  129.983   30.085
  42.218  129.983   29.115
  42.483  129.983   28.139
  42.731  129.983   27.156
  42.965  129.983   26.169
  43.188  129.983   25.179
  43.404  129.983   24.185
  43.614  129.983   23.190
  43.818  129.983   22.194
  44.015  129.983   21.197
  44.209  129.983   20.200
  44.401  129.983   19.203
  44.592  129.983   18.206
  44.782  129.983   17.209
  44.969  129.983   16.212
  45.155  129.983   15.214
  45.343  129.983   14.217
  45.532  129.983   13.219
  45.726  129.983   12.222
  45.924  129.983   11.226
  46.129  129.983   10.232
  46.338  129.983    9.240
  46.549  129.983    8.247
  46.759  129.983    7.252
  46.961  129.983    6.256
  47.139  129.983    5.257
  47.302  129.983    4.255
  47.450  129.983    3.251
  47.589  129.983    2.245
  47.708  129.983    1.236
  47.798  129.983    0.225
  47.871  129.983   -0.787
  47.931  129.983   -1.801
  47.978  129.983   -2.815
  48.009  129.983   -3.829
  48.009  129.983   -4.844
  47.987  129.983   -5.856
  47.887  129.983   -6.864
  47.771  129.983   -7.863
  47.569  129.983   -8.849
  47.298  129.983   -9.816
  46.956  129.983  -10.758
  46.540  129.983  -11.667
  46.049  129.983  -12.537
  45.474  129.983  -13.358
  44.820  129.983  -14.122
  44.116  129.983  -14.820
  43.316  129.983  -15.440
  42.526  129.983  -15.978
  41.645  129.983  -16.412
  40.714  129.983  -16.749
  39.749  129.983  -17.006
  38.760  129.983  -17.179
  37.757  129.983  -17.290
  36.754  129.983  -17.356
  35.735  129.983  -17.397
  34.710  129.983  -17.422
  33.686  129.983  -17.440
  32.662  129.983  -17.454
  31.706  129.983  -17.466
  30.690  129.983  -17.479
  29.675  129.983  -17.492
  28.670  129.983  -17.504
  27.660  129.983  -17.518
  26.648  129.983  -17.531
  25.634  129.983  -17.544
  24.615  129.983  -17.557
  23.596  129.983  -17.569
  22.570  129.983  -17.582
  21.540  129.983  -17.594
  20.482  129.983  -17.602
  19.481  129.983  -17.605
  18.471  129.983  -17.605
  17.455  129.983  -17.600
  16.409  129.983  -17.593
  15.398  129.983  -17.589
  14.385  129.983  -17.579
  13.373  129.983  -17.579
  12.363  129.983  -17.582
  11.347  129.983  -17.590
  10.365  129.983  -17.590
   9.347  129.983  -17.582
   8.298  129.983  -17.568
   7.292  129.983  -17.534
   6.338  129.983  -17.482
   5.318  129.983  -17.406
   4.364  129.983  -17.307
   3.455  129.983  -17.181
   2.570  129.983  -17.036
   1.702  129.983  -16.873
   0.852  129.983  -16.697
   0.007  129.983  -16.509
  -0.836  129.983  -16.314
  -1.686  129.983  -16.113
  -2.527  129.983  -15.906
  -3.367  129.983  -15.697
  -4.206  129.983  -15.475
  -5.044  129.983  -15.267
  -5.880  129.983  -15.048
  -6.713  129.983  -14.826
  -7.537  129.983  -14.599
  -8.368  129.983  -14.370
  -9.176  129.983  -14.131
 -10.006  129.983  -13.891
 -10.850  129.983  -13.645
 -11.679  129.983  -13.398
 -12.510  129.983  -13.145
 -13.334  129.983  -12.881
 -14.147  129.983  -12.598
 -14.952  129.983  -12.299
 -15.749  129.983  -11.977
 -16.520  129.983  -11.623
 -17.313  129.983  -11.259
 -18.082  129.983  -10.870
 -18.840  129.983  -10.459
 -19.589  129.983  -10.025
 -20.322  129.983   -9.572
 -21.040  129.983   -9.099
 -21.745  129.983   -8.602
 -22.438  129.983   -8.087
 -23.120  129.983   -7.552
 -23.789  129.983   -6.997
 -24.446  129.983   -6.438
 -25.095  129.983   -5.866
 -25.740  129.983   -5.289
 -26.382  129.983   -4.706
 -27.021  129.983   -4.116
 -27.647  129.983   -3.517
 -28.252  129.983   -2.905
 -28.838  129.983   -2.277
 -29.413  129.983   -1.638
 -29.976  129.983   -0.982
 -30.526  129.983   -0.321
 -31.061  129.983    0.354
 -31.585  129.983    1.041
 -32.098  129.983    1.738
 -32.603  129.983    2.442
 -33.101  129.983    3.153
 -33.592  129.983    3.869
 -34.073  129.983    4.588
 -34.542  129.983    5.312
 -34.994  129.983    6.048
 -35.424  129.983    6.797
 -35.825  129.983    7.557
 -36.193  129.983    8.339
 -36.525  129.983    9.137
 -36.823  129.983    9.947
 -37.088  129.983   10.767
 -37.325  129.983   11.595
 -37.541  129.983   12.429
 -37.735  129.983   13.268
 -37.910  129.983   14.110
 -38.064  129.983   14.956
 -38.200  129.983   15.807
 -38.326  129.983   16.661
 -38.421  129.983   17.518
 -38.506  129.983   18.378
 -38.573  129.983   19.239
 -38.622  129.983   20.101
 -38.654  129.983   20.963
 -38.666  129.983   21.827
 -38.666  129.983   22.690
 -38.652  129.983   23.554
 -38.623  129.983   24.418
 -38.593  129.983   25.281
 -38.553  129.983   26.144
 -38.508  129.983   27.007
 -38.461  129.983   27.870
 -38.414  129.983   28.732
 -38.366  129.983   29.595
 -38.318  129.983   30.458
 -38.269  129.983   31.320
 -38.218  129.983   32.183
 -38.163  129.983   33.049
 -38.106  129.983   33.940
 -38.045  129.983   34.862
 -37.980  129.983   35.820
 -37.965  130.956   35.188
 -37.897  130.956   36.373
 -37.828  130.956   37.537
 -37.764  130.956   38.728
 -37.692  130.956   39.942
 -37.617  130.956   41.162
 -37.548  130.956   42.381
 -37.478  130.956   43.599
 -37.394  130.956   44.834
 -37.318  130.956   46.031
 -37.221  130.956   47.250
 -37.145  130.956   48.471
 -37.076  130.956   49.689
 -37.008  130.956   50.910
 -36.930  130.956   52.131
 -36.839  130.956   53.351
 -36.739  130.956   54.570
 -36.636  130.956   55.787
 -36.524  130.956   57.004
 -36.399  130.956   58.220
 -36.273  130.956   59.436
 -36.167  130.956   60.654
 -36.076  130.956   61.871
 -35.978  130.956   63.087
 -35.864  130.956   64.303
 -35.753  130.956   65.520
 -35.664  130.956   66.737
 -35.586  130.956   67.952
 -35.500  130.956   69.167
 -35.388  130.956   70.381
 -35.248  130.956   71.594
 -35.098  130.956   72.804
 -34.952  130.956   74.011
 -34.803  130.956   75.214
 -34.640  130.956   76.415
 -34.453  130.956   77.613
 -34.245  130.956   78.808
 -34.020  130.956   79.995
 -33.707  130.956   81.181
 -33.410  130.956   82.340
 -33.141  130.956   83.509
 -32.791  130.956   84.673
 -32.379  130.956   85.832
 -31.980  130.956   86.986
 -31.609  130.956   88.133
 -31.243  130.956   89.277
 -30.856  130.956   90.425
 -30.438  130.956   91.572
 -30.000  130.956   92.711
 -29.559  130.956   93.844
 -29.122  130.956   94.973
 -28.702  130.956   96.100
 -28.242  130.956   97.227
 -27.713  130.956   98.351
 -27.218  130.956   99.469
 -26.729  130.956  100.583
 -26.231  130.956  101.694
 -25.444  130.956  101.940
 -24.640  130.956  101.940
 -23.835  130.956  101.940
 -23.030  130.956  101.940
 -22.225  130.956  101.940
 -21.420  130.956  101.940
 -20.616  130.956  101.940
 -19.811  130.956  101.940
 -19.006  130.956  101.940
 -18.201  130.956  101.940
 -17.397  130.956  101.940
 -16.592  130.956  101.940
 -15.787  130.956  101.940
 -14.982  130.956  101.940
 -14.177  130.956  101.940
 -13.373  130.956  101.940
 -12.568  130.956  101.940
 -11.763  130.956  101.940
 -10.958  130.956  101.940
 -10.154  130.956  101.940
  -9.349  130.956  101.940
  -8.544  130.956  101.940
  -7.739  130.956  101.940
  -6.935  130.956  101.940
  -6.140  130.956  101.940
  -5.346  130.956  101.940
  -4.552  130.956  101.940
  -3.758  130.956  101.940
  -2.964  130.956  101.940
  -2.170  130.956  101.940
  -1.376  130.956  101.940
  -0.574  130.956  101.940
   0.237  130.956  101.940
   1.048  130.956  101.940
   1.859  130.956  101.940
   2.670  130.956  101.940
   3.482  130.956  101.940
   4.293  130.956  101.940
   5.104  130.956  101.940
   5.915  130.956  101.940
   6.726  130.956  101.940
   7.537  130.956  101.940
   8.349  130.956  101.940
   9.160  130.956  101.940
   9.966  130.956  101.940
  10.770  130.956  101.940
  11.575  130.956  101.940
  12.380  130.956  101.940
  13.185  130.956  101.940
  13.989  130.956  101.940
  14.794  130.956  101.940
  15.524  130.956  101.940
  15.757  130.956  101.940
  16.460  130.956  100.300
  16.823  130.956   99.305
  17.074  130.956   98.318
  17.364  130.956   97.342
  17.686  130.956   96.387
  18.015  130.956   95.452
  18.337  130.956   94.514
  18.676  130.956   93.557
  19.014  130.956   92.591
  19.345  130.956   91.620
  19.662  130.956   90.648
  19.974  130.956   89.678
  20.284  130.956   88.698
  20.592  130.956   87.715
  20.898  130.956   86.732
  21.208  130.956   85.755
  21.525  130.956   84.789
  21.848  130.956   83.833
  22.169  130.956   82.877
  22.482  130.956   81.914
  22.790  130.956   80.948
  23.096  130.956   79.984
  23.389  130.956   79.010
  23.662  130.956   78.020
  23.921  130.956   77.022
  24.172  130.956   76.021
  24.417  130.956   75.020
  24.661  130.956   74.018
  24.911  130.956   73.021
  25.181  130.956   72.040
  25.468  130.956   71.077
  25.762  130.956   70.114
  26.053  130.956   69.142
  26.339  130.956   68.161
  26.616  130.956   67.175
  26.889  130.956   66.187
  27.158  130.956   65.192
  27.427  130.956   64.191
  27.757  130.956   63.193
  28.035  130.956   62.213
  28.349  130.956   61.252
  28.703  130.956   60.305
  29.079  130.956   59.372
  29.466  130.956   58.445
  29.856  130.956   57.516
  30.248  130.956   56.582
  30.645  130.956   55.646
  31.031  130.956   54.706
  31.447  130.956   53.752
  31.852  130.956   52.796
  32.280  130.956   51.873
  32.727  130.956   50.978
  33.178  130.956   50.062
  33.636  130.956   49.144
  34.098  130.956   48.231
  34.571  130.956   47.321
  35.053  130.956   46.427
  35.534  130.956   45.543
  36.003  130.956   44.631
  36.459  130.956   43.700
  36.893  130.956   42.764
  37.313  130.956   41.826
  37.726  130.956   40.890
  38.146  130.956   39.956
  38.567  130.956   39.021
  38.982  130.956   38.082
  39.396  130.956   37.144
  39.808  130.956   36.207
  40.214  130.956   35.274
  40.603  130.956   34.338
  40.954  130.956   33.389
  41.256  130.956   32.431
  41.540  130.956   31.466
  41.820  130.956   30.500
  42.092  130.956   29.535
  42.354  130.956   28.567
  42.607  130.956   27.595
  42.852  130.956   26.619
  43.087  130.956   25.637
  43.306  130.956   24.651
  43.507  130.956   23.662
  43.698  130.956   22.672
  43.886  130.956   21.681
  44.074  130.956   20.690
  44.263  130.956   19.699
  44.450  130.956   18.707
  44.639  130.956   17.716
  44.833  130.956   16.726
  45.033  130.956   15.737
  45.235  130.956   14.749
  45.436  130.956   13.760
  45.637  130.956   12.770
  45.841  130.956   11.781
  46.051  130.956   10.794
  46.266  130.956    9.808
  46.484  130.956    8.824
  46.700  130.956    7.839
  46.909  130.956    6.853
  47.105  130.956    5.864
  47.284  130.956    4.871
  47.446  130.956    3.876
  47.589  130.956    2.878
  47.708  130.956    1.877
  47.823  130.956    0.874
  47.914  130.956   -0.131
  47.991  130.956   -1.137
  48.055  130.956   -2.144
  48.105  130.956   -3.152
  48.134  130.956   -4.160
  48.134  130.956   -5.168
  48.096  130.956   -6.174
  47.987  130.956   -7.175
  47.856  130.956   -8.168
  47.640  130.956   -9.147
  47.353  130.956  -10.106
  46.994  130.956  -11.038
  46.562  130.956  -11.936
  46.056  130.956  -12.791
  45.485  130.956  -13.595
  44.850  130.956  -14.339
  44.145  130.956  -15.013
  43.339  130.956  -15.608
  42.526  130.956  -16.116
  41.645  130.956  -16.520
  40.650  130.956  -16.828
  39.749  130.956  -17.063
  38.760  130.956  -17.217
  37.757  130.956  -17.314
  36.754  130.956  -17.371
  35.735  130.956  -17.406
  34.710  130.956  -17.428
  33.686  130.956  -17.444
  32.673  130.956  -17.457
  31.706  130.956  -17.468
  30.690  130.956  -17.480
  29.675  130.956  -17.492
  28.670  130.956  -17.505
  27.660  130.956  -17.518
  26.648  130.956  -17.531
  25.634  130.956  -17.544
  24.615  130.956  -17.557
  23.600  130.956  -17.569
  22.602  130.956  -17.582
  21.578  130.956  -17.594
  20.491  130.956  -17.602
  19.489  130.956  -17.605
  18.549  130.956  -17.605
  17.471  130.956  -17.600
  16.470  130.956  -17.593
  15.466  130.956  -17.579
  14.468  130.956  -17.578
  13.464  130.956  -17.573
  12.461  130.956  -17.573
  11.458  130.956  -17.578
  10.483  130.956  -17.578
   9.440  130.956  -17.568
   8.432  130.956  -17.554
   7.434  130.956  -17.519
   6.416  130.956  -17.463
   5.444  130.956  -17.385
   4.469  130.956  -17.280
   3.631  130.956  -17.149
   2.760  130.956  -17.000
   1.902  130.956  -16.836
   1.061  130.956  -16.659
   0.222  130.956  -16.473
  -0.614  130.956  -16.279
  -1.457  130.956  -16.080
  -2.292  130.956  -15.876
  -3.126  130.956  -15.669
  -3.959  130.956  -15.459
  -4.791  130.956  -15.245
  -5.622  130.956  -15.029
  -6.449  130.956  -14.810
  -7.269  130.956  -14.586
  -8.096  130.956  -14.359
  -8.922  130.956  -14.122
  -9.745  130.956  -13.885
 -10.566  130.956  -13.643
 -11.389  130.956  -13.400
 -12.215  130.956  -13.152
 -13.036  130.956  -12.892
 -13.844  130.956  -12.616
 -14.640  130.956  -12.325
 -15.429  130.956  -12.012
 -16.211  130.956  -11.667
 -16.986  130.956  -11.306
 -17.751  130.956  -10.917
 -18.505  130.956  -10.505
 -19.248  130.956  -10.074
 -19.978  130.956   -9.625
 -20.695  130.956   -9.159
 -21.398  130.956   -8.672
 -22.089  130.956   -8.165
 -22.768  130.956   -7.639
 -23.435  130.956   -7.096
 -24.092  130.956   -6.544
 -24.742  130.956   -5.983
 -25.387  130.956   -5.415
 -26.027  130.956   -4.841
 -26.660  130.956   -4.260
 -27.284  130.956   -3.670
 -27.896  130.956   -3.070
 -28.495  130.956   -2.452
 -29.081  130.956   -1.827
 -29.668  130.956   -1.181
 -30.208  130.956   -0.532
 -30.749  130.956    0.132
 -31.278  130.956    0.810
 -31.794  130.956    1.498
 -32.298  130.956    2.194
 -32.796  130.956    2.898
 -33.287  130.956    3.607
 -33.774  130.956    4.319
 -34.259  130.956    5.036
 -34.731  130.956    5.762
 -35.180  130.956    6.498
 -35.596  130.956    7.246
 -35.961  130.956    8.017
 -36.285  130.956    8.805
 -36.580  130.956    9.603
 -36.851  130.956   10.412
 -37.106  130.956   11.229
 -37.345  130.956   12.052
 -37.564  130.956   12.881
 -37.763  130.956   13.713
 -37.941  130.956   14.549
 -38.094  130.956   15.391
 -38.225  130.956   16.237
 -38.330  130.956   17.086
 -38.421  130.956   17.938
 -38.498  130.956   18.792
 -38.553  130.956   19.647
 -38.592  130.956   20.503
 -38.616  130.956   21.360
 -38.623  130.956   22.218
 -38.623  130.956   23.075
 -38.593  130.956   23.933
 -38.584  130.956   24.791
 -38.552  130.956   25.648
 -38.508  130.956   26.505
 -38.457  130.956   27.362
 -38.403  130.956   28.218
 -38.350  130.956   29.075
 -38.297  130.956   29.931
 -38.245  130.956   30.788
 -38.193  130.956   31.645
 -38.140  130.956   32.505
 -38.085  130.956   33.388
 -38.027  130.956   34.293
 -37.965  130.956   35.188
 -37.959  131.928   34.738
 -37.869  131.928   35.848
 -37.788  131.928   37.009
 -37.714  131.928   38.195
 -37.640  131.928   39.402
 -37.570  131.928   40.613
 -37.497  131.928   41.824
 -37.414  131.928   43.034
 -37.318  131.928   44.242
 -37.221  131.928   45.451
 -37.125  131.928   46.663
 -37.033  131.928   47.876
 -36.953  131.928   49.088
 -36.880  131.928   50.303
 -36.794  131.928   51.517
 -36.690  131.928   52.730
 -36.576  131.928   53.941
 -36.459  131.928   55.150
 -36.336  131.928   56.359
 -36.206  131.928   57.567
 -36.077  131.928   58.776
 -35.953  131.928   59.985
 -35.831  131.928   61.192
 -35.704  131.928   62.398
 -35.576  131.928   63.605
 -35.455  131.928   64.814
 -35.346  131.928   66.022
 -35.243  131.928   67.229
 -35.139  131.928   68.436
 -35.027  131.928   69.644
 -34.910  131.928   70.850
 -34.788  131.928   72.053
 -34.653  131.928   73.253
 -34.493  131.928   74.447
 -34.300  131.928   75.639
 -34.078  131.928   76.830
 -33.853  131.928   78.018
 -33.635  131.928   79.199
 -33.406  131.928   80.376
 -33.141  131.928   81.534
 -32.791  131.928   82.700
 -32.386  131.928   83.862
 -32.044  131.928   85.018
 -31.666  131.928   86.166
 -31.302  131.928   87.303
 -30.930  131.928   88.436
 -30.533  131.928   89.572
 -30.107  131.928   90.705
 -29.661  131.928   91.829
 -29.194  131.928   92.945
 -28.702  131.928   94.058
 -28.242  131.928   95.173
 -27.728  131.928   96.288
 -27.233  131.928   97.398
 -26.729  131.928   98.499
 -26.231  131.928   99.591
 -25.444  131.928  100.675
 -24.807  131.928  101.760
 -24.235  131.928  101.940
 -23.495  131.928  101.940
 -22.755  131.928  101.940
 -22.014  131.928  101.940
 -21.228  131.928  101.940
 -20.434  131.928  101.940
 -19.640  131.928  101.940
 -18.846  131.928  101.940
 -18.052  131.928  101.940
 -17.257  131.928  101.940
 -16.463  131.928  101.940
 -15.669  131.928  101.940
 -14.875  131.928  101.940
 -14.081  131.928  101.940
 -13.287  131.928  101.940
 -12.493  131.928  101.940
 -11.699  131.928  101.940
 -10.909  131.928  101.940
 -10.154  131.928  101.940
  -9.349  131.928  101.940
  -8.544  131.928  101.940
  -7.739  131.928  101.940
  -6.935  131.928  101.940
  -6.140  131.928  101.940
  -5.346  131.928  101.940
  -4.552  131.928  101.940
  -3.758  131.928  101.940
  -2.964  131.928  101.940
  -2.170  131.928  101.940
  -1.376  131.928  101.940
  -0.581  131.928  101.940
   0.196  131.928  101.940
   0.936  131.928  101.940
   1.677  131.928  101.940
   2.417  131.928  101.940
   3.157  131.928  101.940
   3.898  131.928  101.940
   4.638  131.928  101.940
   5.378  131.928  101.940
   6.119  131.928  101.940
   6.859  131.928  101.940
   7.599  131.928  101.940
   8.356  131.928  101.940
   9.161  131.928  101.940
   9.966  131.928  101.940
  10.770  131.928  101.940
  11.575  131.928  101.940
  12.380  131.928  101.940
  13.185  131.928  101.940
  13.989  131.928  101.940
  14.794  131.928  101.940
  15.524  131.928  101.940
  15.757  131.928  100.065
  16.011  131.928   99.039
  16.294  131.928   98.034
  16.620  131.928   97.044
  17.012  131.928   96.109
  17.436  131.928   95.182
  17.818  131.928   94.249
  18.170  131.928   93.268
  18.501  131.928   92.258
  18.813  131.928   91.231
  19.111  131.928   90.203
  19.413  131.928   89.190
  19.725  131.928   88.197
  20.049  131.928   87.215
  20.383  131.928   86.239
  20.716  131.928   85.261
  21.048  131.928   84.285
  21.377  131.928   83.317
  21.696  131.928   82.343
  21.998  131.928   81.341
  22.287  131.928   80.326
  22.566  131.928   79.312
  22.836  131.928   78.306
  23.103  131.928   77.319
  23.376  131.928   76.326
  23.648  131.928   75.329
  23.912  131.928   74.332
  24.174  131.928   73.338
  24.444  131.928   72.347
  24.725  131.928   71.361
  25.016  131.928   70.380
  25.313  131.928   69.402
  25.608  131.928   68.424
  25.895  131.928   67.447
  26.181  131.928   66.467
  26.479  131.928   65.486
  26.788  131.928   64.503
  27.095  131.928   63.517
  27.412  131.928   62.541
  27.757  131.928   61.586
  28.126  131.928   60.651
  28.521  131.928   59.722
  28.934  131.928   58.792
  29.342  131.928   57.856
  29.752  131.928   56.916
  30.176  131.928   55.983
  30.606  131.928   55.052
  31.031  131.928   54.120
  31.457  131.928   53.193
  31.890  131.928   52.271
  32.330  131.928   51.349
  32.783  131.928   50.429
  33.254  131.928   49.516
  33.743  131.928   48.612
  34.239  131.928   47.716
  34.733  131.928   46.824
  35.239  131.928   45.931
  35.709  131.928   45.056
  36.189  131.928   44.145
  36.649  131.928   43.212
  37.083  131.928   42.275
  37.503  131.928   41.338
  37.908  131.928   40.403
  38.309  131.928   39.470
  38.717  131.928   38.533
  39.132  131.928   37.592
  39.546  131.928   36.651
  39.958  131.928   35.710
  40.362  131.928   34.771
  40.743  131.928   33.829
  41.083  131.928   32.882
  41.378  131.928   31.936
  41.652  131.928   30.984
  41.914  131.928   30.023
  42.167  131.928   29.056
  42.413  131.928   28.089
  42.652  131.928   27.120
  42.881  131.928   26.148
  43.100  131.928   25.171
  43.309  131.928   24.189
  43.510  131.928   23.204
  43.703  131.928   22.218
  43.890  131.928   21.233
  44.078  131.928   20.247
  44.271  131.928   19.262
  44.467  131.928   18.276
  44.666  131.928   17.291
  44.866  131.928   16.307
  45.068  131.928   15.324
  45.273  131.928   14.342
  45.479  131.928   13.360
  45.686  131.928   12.377
  45.895  131.928   11.395
  46.110  131.928   10.415
  46.329  131.928    9.436
  46.550  131.928    8.458
  46.769  131.928    7.479
  46.980  131.928    6.498
  47.182  131.928    5.514
  47.369  131.928    4.527
  47.540  131.928    3.537
  47.693  131.928    2.544
  47.823  131.928    1.548
  47.929  131.928    0.550
  48.032  131.928   -0.450
  48.114  131.928   -1.451
  48.181  131.928   -2.453
  48.231  131.928   -3.456
  48.256  131.928   -4.459
  48.256  131.928   -5.463
  48.211  131.928   -6.464
  48.096  131.928   -7.460
  47.967  131.928   -8.448
  47.751  131.928   -9.421
  47.465  131.928  -10.374
  47.107  131.928  -11.298
  46.675  131.928  -12.184
  46.167  131.928  -13.025
  45.582  131.928  -13.813
  44.917  131.928  -14.536
  44.163  131.928  -15.186
  43.365  131.928  -15.755
  42.532  131.928  -16.235
  41.645  131.928  -16.613
  40.650  131.928  -16.894
  39.749  131.928  -17.110
  38.760  131.928  -17.248
  37.757  131.928  -17.333
  36.754  131.928  -17.383
  35.740  131.928  -17.413
  34.727  131.928  -17.433
  33.713  131.928  -17.447
  32.673  131.928  -17.459
  31.706  131.928  -17.469
  30.690  131.928  -17.481
  29.675  131.928  -17.493
  28.670  131.928  -17.505
  27.660  131.928  -17.518
  26.648  131.928  -17.531
  25.634  131.928  -17.544
  24.615  131.928  -17.557
  23.612  131.928  -17.569
  22.602  131.928  -17.582
  21.590  131.928  -17.594
  20.623  131.928  -17.602
  19.622  131.928  -17.605
  18.593  131.928  -17.606
  17.627  131.928  -17.602
  16.607  131.928  -17.594
  15.635  131.928  -17.578
  14.640  131.928  -17.573
  13.640  131.928  -17.568
  12.646  131.928  -17.563
  11.630  131.928  -17.561
  10.652  131.928  -17.560
   9.651  131.928  -17.554
   8.653  131.928  -17.526
   7.663  131.928  -17.507
   6.685  131.928  -17.453
   5.727  131.928  -17.373
   4.792  131.928  -17.262
   3.902  131.928  -17.126
   3.036  131.928  -16.971
   2.183  131.928  -16.802
   1.345  131.928  -16.622
   0.509  131.928  -16.434
  -0.325  131.928  -16.240
  -1.164  131.928  -16.041
  -1.996  131.928  -15.837
  -2.827  131.928  -15.631
  -3.701  131.928  -15.428
  -4.487  131.928  -15.213
  -5.316  131.928  -15.000
  -6.140  131.928  -14.784
  -6.956  131.928  -14.565
  -7.781  131.928  -14.343
  -8.605  131.928  -14.110
  -9.426  131.928  -13.878
 -10.245  131.928  -13.641
 -11.062  131.928  -13.400
 -11.880  131.928  -13.153
 -12.695  131.928  -12.901
 -13.506  131.928  -12.635
 -14.312  131.928  -12.355
 -15.110  131.928  -12.051
 -15.893  131.928  -11.714
 -16.662  131.928  -11.354
 -17.416  131.928  -10.965
 -18.154  131.928  -10.553
 -18.881  131.928  -10.122
 -19.612  131.928   -9.677
 -20.338  131.928   -9.216
 -21.052  131.928   -8.737
 -21.749  131.928   -8.239
 -22.430  131.928   -7.722
 -23.096  131.928   -7.190
 -23.753  131.928   -6.647
 -24.404  131.928   -6.095
 -25.052  131.928   -5.536
 -25.695  131.928   -4.971
 -26.330  131.928   -4.397
 -26.956  131.928   -3.817
 -27.572  131.928   -3.226
 -28.177  131.928   -2.619
 -28.771  131.928   -2.006
 -29.350  131.928   -1.373
 -29.914  131.928   -0.734
 -30.462  131.928   -0.081
 -30.995  131.928    0.586
 -31.513  131.928    1.265
 -32.017  131.928    1.953
 -32.510  131.928    2.651
 -32.994  131.928    3.355
 -33.472  131.928    4.062
 -33.942  131.928    4.775
 -34.397  131.928    5.496
 -34.834  131.928    6.226
 -35.247  131.928    6.966
 -35.633  131.928    7.728
 -35.990  131.928    8.504
 -36.316  131.928    9.290
 -36.615  131.928   10.088
 -36.894  131.928   10.893
 -37.154  131.928   11.706
 -37.393  131.928   12.523
 -37.608  131.928   13.344
 -37.797  131.928   14.171
 -37.963  131.928   15.004
 -38.105  131.928   15.842
 -38.225  131.928   16.684
 -38.330  131.928   17.529
 -38.412  131.928   18.376
 -38.478  131.928   19.225
 -38.528  131.928   20.075
 -38.564  131.928   20.927
 -38.585  131.928   21.779
 -38.585  131.928   22.632
 -38.584  131.928   23.485
 -38.552  131.928   24.338
 -38.508  131.928   25.190
 -38.459  131.928   26.042
 -38.419  131.928   26.894
 -38.375  131.928   27.746
 -38.322  131.928   28.598
 -38.271  131.928   29.450
 -38.222  131.928   30.302
 -38.173  131.928   31.154
 -38.127  131.928   32.009
 -38.079  131.928   32.885
 -38.026  131.928   33.786
 -37.959  131.928   34.738
 -37.887  132.900   34.212
 -37.827  132.900   35.310
 -37.745  132.900   36.465
 -37.666  132.900   37.641
 -37.581  132.900   38.836
 -37.499  132.900   40.034
 -37.414  132.900   41.232
 -37.322  132.900   42.430
 -37.221  132.900   43.626
 -37.125  132.900   44.822
 -37.033  132.900   46.022
 -36.936  132.900   47.224
 -36.835  132.900   48.425
 -36.734  132.900   49.628
 -36.633  132.900   50.832
 -36.541  132.900   52.032
 -36.434  132.900   53.231
 -36.308  132.900   54.428
 -36.171  132.900   55.623
 -36.037  132.900   56.819
 -35.908  132.900   58.015
 -35.766  132.900   59.211
 -35.606  132.900   60.408
 -35.445  132.900   61.612
 -35.304  132.900   62.827
 -35.178  132.900   64.048
 -35.052  132.900   65.268
 -34.923  132.900   66.486
 -34.796  132.900   67.704
 -34.673  132.900   68.924
 -34.549  132.900   70.146
 -34.408  132.900   71.362
 -34.237  132.900   72.562
 -34.040  132.900   73.743
 -33.840  132.900   74.935
 -33.650  132.900   76.144
 -33.458  132.900   77.356
 -33.243  132.900   78.565
 -32.989  132.900   79.755
 -32.694  132.900   80.921
 -32.386  132.900   82.096
 -32.044  132.900   83.289
 -31.758  132.900   84.479
 -31.403  132.900   85.642
 -31.006  132.900   86.760
 -30.586  132.900   87.862
 -30.156  132.900   88.982
 -29.693  132.900   90.111
 -29.202  132.900   91.213
 -28.728  132.900   92.300
 -28.242  132.900   93.397
 -27.728  132.900   94.500
 -27.233  132.900   95.607
 -26.737  132.900   96.709
 -26.231  132.900   97.781
 -25.716  132.900   98.782
 -25.198  132.900   99.752
 -24.404  132.900  100.781
 -23.610  132.900  101.844
 -22.816  132.900  101.940
 -22.022  132.900  101.940
 -21.373  132.900  101.940
 -20.546  132.900  101.940
 -19.793  132.900  101.940
 -19.053  132.900  101.940
 -18.313  132.900  101.940
 -17.572  132.900  101.940
 -16.832  132.900  101.940
 -16.092  132.900  101.940
 -15.351  132.900  101.940
 -14.611  132.900  101.940
 -13.871  132.900  101.940
 -13.130  132.900  101.940
 -12.390  132.900  101.940
 -11.650  132.900  101.940
 -10.905  132.900  101.940
 -10.111  132.900  101.940
  -9.317  132.900  101.940
  -8.522  132.900  101.940
  -7.728  132.900  101.940
  -6.934  132.900  101.940
  -6.150  132.900  101.940
  -5.398  132.900  101.940
  -4.647  132.900  101.940
  -3.895  132.900  101.940
  -3.144  132.900  101.940
  -2.360  132.900  101.940
  -1.534  132.900  101.940
  -0.707  132.900  101.940
   0.120  132.900  101.940
   0.936  132.900  101.940
   1.677  132.900  101.940
   2.417  132.900  101.940
   3.157  132.900  101.940
   3.898  132.900  101.940
   4.638  132.900  101.940
   5.378  132.900  101.940
   6.119  132.900  101.940
   6.859  132.900  101.940
   7.599  132.900  101.940
   8.340  132.900  101.940
   9.080  132.900  101.940
   9.820  132.900  101.940
  10.561  132.900  101.940
  11.301  132.900  101.940
  12.041  132.900  101.940
  12.782  132.900  101.940
  13.522  132.900  101.940
  13.942  132.900  101.940
  14.463  132.900  100.136
  14.740  132.900   99.145
  15.060  132.900   98.167
  15.538  132.900   97.199
  15.913  132.900   96.246
  16.380  132.900   95.296
  16.846  132.900   94.348
  17.099  132.900   93.394
  17.367  132.900   92.437
  17.683  132.900   91.480
  18.036  132.900   90.506
  18.331  132.900   89.512
  18.682  132.900   88.509
  19.059  132.900   87.506
  19.438  132.900   86.517
  20.020  132.900   85.577
  20.383  132.900   84.770
  20.608  132.900   84.018
  20.910  132.900   83.082
  21.189  132.900   82.075
  21.385  132.900   81.056
  21.623  132.900   80.041
  21.917  132.900   79.051
  22.230  132.900   78.074
  22.540  132.900   77.085
  22.835  132.900   76.088
  23.152  132.900   75.086
  23.463  132.900   74.079
  23.762  132.900   73.079
  24.042  132.900   72.102
  24.336  132.900   71.133
  24.660  132.900   70.141
  24.996  132.900   69.141
  25.313  132.900   68.148
  25.608  132.900   67.135
  25.895  132.900   66.114
  26.181  132.900   65.110
  26.479  132.900   64.106
  26.788  132.900   63.083
  27.095  132.900   62.066
