  32.019  209.228   21.412
  32.492  209.296   20.987
  32.958  209.363   20.551
  33.424  209.428   20.102
  33.895  209.493   19.649
  34.372  209.558   19.201
  34.853  209.624   18.763
  35.338  209.692   18.335
  35.823  209.761   17.912
  36.306  209.830   17.495
  36.786  209.899   17.075
  37.262  209.966   16.642
  37.736  210.032   16.195
  38.210  210.095   15.736
  38.684  210.160   15.281
  39.159  210.225   14.837
  39.635  210.292   14.401
  40.113  210.360   13.974
  40.592  210.429   13.549
  41.067  210.497   13.124
  41.542  210.565   12.689
  42.017  210.633   12.253
  42.496  210.700   11.814
  42.975  210.767   11.372
  43.464  210.834   10.921
  43.962  210.900   10.449
  44.499  210.972    9.949
  45.085  211.067    9.371
  45.688  211.166    8.764
  46.299  211.263    8.148
  46.909  211.355    7.518
  47.505  211.444    6.870
  48.078  211.531    6.210
  48.623  211.612    5.528
  49.133  211.687    4.804
  49.617  211.757    4.034
  50.071  211.824    3.248
  50.500  211.887    2.451
  50.901  211.948    1.642
  51.325  212.007    0.822
  51.790  212.062   -0.006
  52.210  212.114   -0.847
  52.544  212.164   -1.699
  52.806  212.210   -2.555
  53.040  212.248   -3.418
  53.194  212.281   -4.287
  53.314  212.311   -5.162
  53.462  212.336   -6.042
  53.626  212.356   -6.931
  53.686  212.370   -7.819
  53.686  212.373   -8.709
  53.659  212.365   -9.591
  53.528  212.348  -10.447
  53.230  212.325  -11.257
  53.000  212.287  -11.995
  52.658  212.235  -12.649
  52.052  212.170  -13.264
  51.306  212.094  -13.825
  50.538  212.006  -14.279
  49.748  211.903  -14.611
  48.941  211.787  -15.092
  48.118  211.663  -15.391
  47.281  211.537  -15.623
  46.439  211.409  -15.828
  45.593  211.281  -16.010
  44.743  211.152  -16.177
  43.891  211.023  -16.330
  43.035  210.893  -16.472
  42.178  210.764  -16.605
  41.319  210.634  -16.732
  40.442  210.504  -16.851
  39.552  210.374  -16.962
  38.660  210.244  -17.064
  37.766  210.114  -17.165
  36.817  209.983  -17.249
  35.984  209.853  -17.326
  35.093  209.722  -17.376
  34.195  209.592  -17.416
  33.328  209.461  -17.444
  32.462  209.330  -17.465
  31.315  209.154  -17.480
  30.404  209.023  -17.492
  29.492  208.892  -17.503
  28.590  208.763  -17.512
  27.709  208.636  -17.523
  26.843  208.512  -17.535
  25.988  208.389  -17.546
  25.118  208.264  -17.554
  24.360  208.155  -17.562
  23.457  208.025  -17.569
  22.563  207.897  -17.569
  21.668  207.768  -17.567
  20.772  207.640  -17.566
  19.844  207.508  -17.566
  18.926  207.378  -17.571
  18.012  207.248  -17.576
  17.114  207.120  -17.580
  16.217  206.991  -17.580
  15.319  206.862  -17.571
  14.425  206.732  -17.558
  13.532  206.604  -17.542
  12.639  206.477  -17.527
  11.741  206.348  -17.513
  10.841  206.219  -17.500
   9.926  206.093  -17.486
   9.012  205.964  -17.469
   8.100  205.836  -17.438
   7.326  205.707  -17.388
   6.284  205.579  -17.339
   5.374  205.450  -17.287
   4.460  205.322  -17.239
   3.546  205.191  -17.206
   2.631  205.063  -17.170
   1.715  204.935  -17.136
   0.800  204.810  -17.093
  -0.115  204.689  -17.050
  -0.999  204.574  -17.010
  -1.667  204.469  -16.976
  -2.304  204.369  -16.950
  -2.940  204.272  -16.925
  -3.577  204.180  -16.899
  -4.213  204.088  -16.871
  -4.849  203.996  -16.841
  -5.485  203.904  -16.811
  -6.122  203.811  -16.784
  -6.758  203.718  -16.758
  -7.394  203.626  -16.729
  -8.030  203.534  -16.690
  -8.666  203.442  -16.651
  -9.302  203.350  -16.616
  -9.939  203.258  -16.567
 -10.575  203.166  -16.518
 -11.210  203.076  -16.465
 -11.845  202.984  -16.409
 -12.479  202.892  -16.350
 -13.112  202.800  -16.288
 -13.745  202.709  -16.225
 -14.377  202.617  -16.160
 -15.008  202.525  -16.092
 -15.639  202.434  -16.007
 -16.269  202.342  -15.919
 -16.899  202.251  -15.827
 -17.528  202.159  -15.733
 -18.157  202.068  -15.639
 -18.785  201.977  -15.545
 -19.412  201.886  -15.450
 -20.039  201.795  -15.352
 -20.665  201.704  -15.251
 -21.290  201.613  -15.148
 -21.914  201.522  -15.043
 -22.536  201.431  -14.937
 -23.157  201.341  -14.828
 -23.777  201.250  -14.715
 -24.394  201.160  -14.598
 -25.008  201.069  -14.466
 -25.617  200.980  -14.324
 -26.218  200.890  -14.175
 -26.823  200.800  -14.017
 -27.451  200.710  -13.842
 -28.078  200.619  -13.648
 -28.699  200.530  -13.432
 -29.286  200.446  -13.181
 -29.852  200.365  -12.888
 -30.418  200.283  -12.566
 -30.979  200.203  -12.215
 -31.491  200.129  -11.835
 -31.912  200.068  -11.434
 -32.333  200.008  -11.018
 -32.810  199.939  -10.595
 -33.293  199.870  -10.168
 -33.773  199.801   -9.739
 -34.253  199.732   -9.310
 -34.730  199.664   -8.882
 -35.213  199.594   -8.451
 -35.687  199.526   -8.012
 -36.136  199.462   -7.554
 -36.546  199.403   -7.073
 -36.909  199.350   -6.563
 -37.231  199.304   -6.022
 -37.558  199.257   -5.468
 -37.887  199.210   -4.913
 -38.218  199.162   -4.363
 -38.550  199.115   -3.819
 -38.877  199.068   -3.272
 -39.191  199.023   -2.715
 -39.490  198.979   -2.145
 -39.778  198.938   -1.569
 -40.051  198.899   -0.988
 -40.301  198.863   -0.400
 -40.522  198.831    0.200
 -40.711  198.804    0.813
 -40.870  198.781    1.438
 -41.002  198.762    2.070
 -41.114  198.746    2.708
 -41.210  198.732    3.348
 -41.297  198.720    3.997
 -41.377  198.708    4.646
 -41.446  198.698    5.295
 -41.504  198.690    5.947
 -41.548  198.684    6.600
 -41.579  198.679    7.251
 -41.599  198.676    7.899
 -41.605  198.675    8.546
 -41.605  198.676    9.194
 -41.587  198.678    9.844
 -41.551  198.683   10.495
 -41.495  198.691   11.151
 -41.605  199.658   11.028
 -41.521  199.670   11.694
 -41.418  199.683   12.362
 -41.324  199.698   13.030
 -41.202  199.716   13.697
 -41.064  199.736   14.366
 -40.916  199.757   15.033
 -40.762  199.779   15.707
 -40.608  199.801   16.361
 -40.456  199.823   17.023
 -40.310  199.844   17.687
 -40.169  199.864   18.352
 -40.022  199.885   19.016
 -39.865  199.908   19.677
 -39.691  199.933   20.335
 -39.463  199.961   20.995
 -39.283  199.992   21.633
 -39.027  200.025   22.278
 -38.792  200.062   22.899
 -38.519  200.101   23.519
 -38.235  200.142   24.134
 -37.939  200.184   24.745
 -37.637  200.227   25.356
 -37.334  200.270   25.965
 -37.032  200.312   26.572
 -36.727  200.355   27.180
 -36.414  200.398   27.788
 -36.106  200.442   28.391
 -35.789  200.490   28.984
 -35.454  200.540   29.571
 -35.102  200.592   30.145
 -34.724  200.647   30.707
 -34.332  200.703   31.257
 -33.923  200.762   31.794
 -33.494  200.823   32.319
 -33.048  200.888   32.831
 -32.586  200.954   33.330
 -32.114  201.022   33.815
 -31.632  201.091   34.289
 -31.139  201.162   34.755
 -30.621  201.236   35.216
 -30.117  201.309   35.671
 -29.628  201.379   36.118
 -29.113  201.453   36.563
 -28.596  201.527   37.000
 -28.052  201.605   37.432
 -27.530  201.680   37.862
 -27.007  201.756   38.289
 -26.491  201.830   38.711
 -25.973  201.904   39.144
 -25.464  201.977   39.582
 -24.956  202.050   40.022
 -24.441  202.124   40.461
 -23.921  202.199   40.897
 -23.399  202.274   41.325
 -22.873  202.350   41.744
 -22.343  202.426   42.152
 -21.808  202.503   42.551
 -21.261  202.580   42.930
 -20.702  202.660   43.310
 -20.136  202.742   43.664
 -19.561  202.826   44.000
 -18.971  202.910   44.320
 -18.372  202.996   44.627
 -17.765  203.084   44.925
 -17.149  203.172   45.213
 -16.533  203.261   45.484
 -15.855  203.358   45.738
 -15.281  203.441   45.967
 -14.640  203.533   46.165
 -13.990  203.626   46.330
 -13.333  203.721   46.462
 -12.670  203.816   46.564
 -12.003  203.912   46.641
 -11.332  204.008   46.694
 -10.661  204.105   46.723
  -9.989  204.201   46.723
  -9.316  204.298   46.717
  -8.644  204.394   46.695
  -7.972  204.491   46.662
  -7.300  204.588   46.622
  -6.630  204.684   46.573
  -5.893  204.790   46.508
  -5.225  204.886   46.432
  -4.626  204.972   46.350
  -3.960  205.068   46.247
  -3.262  205.168   46.124
  -2.633  205.258   46.000
  -1.983  205.352   45.852
  -1.336  205.445   45.683
  -0.698  205.536   45.510
  -0.069  205.627   45.315
   0.548  205.715   45.112
   1.155  205.803   44.899
   1.757  205.889   44.682
   2.365  205.976   44.461
   2.964  206.063   44.235
   3.561  206.148   43.999
   4.155  206.234   43.752
   4.745  206.318   43.490
   5.333  206.403   43.211
   5.918  206.487   42.949
   6.496  206.570   42.669
   7.074  206.653   42.373
   7.642  206.735   42.067
   8.204  206.815   41.751
   8.760  206.895   41.426
   9.309  206.974   41.089
   9.854  207.053   40.747
  10.397  207.131   40.409
  10.933  207.208   40.069
  11.469  207.285   39.712
  12.002  207.361   39.344
  12.530  207.437   38.973
  13.051  207.512   38.602
  13.565  207.586   38.223
  14.071  207.659   37.833
  14.571  207.730   37.433
  15.068  207.802   37.026
  15.565  207.873   36.617
  16.059  207.944   36.207
  16.544  208.014   35.791
  17.023  208.083   35.363
  17.501  208.152   34.923
  17.967  208.220   34.481
  18.436  208.289   34.049
  18.929  208.358   33.624
  19.415  208.427   33.198
  19.869  208.495   32.762
  20.310  208.562   32.315
  20.768  208.628   31.864
  21.235  208.693   31.413
  21.690  208.758   30.960
  22.125  208.823   30.503
  22.552  208.888   30.046
  22.989  208.954   29.596
  23.451  209.021   29.153
  23.925  209.088   28.714
  24.386  209.154   28.272
  24.830  209.220   27.824
  25.308  209.287   27.373
  25.774  209.355   26.926
  26.256  209.422   26.485
  26.756  209.489   26.046
  27.255  209.556   25.606
  27.736  209.622   25.161
  28.197  209.689   24.712
  28.651  209.756   24.262
  29.087  209.823   23.816
  29.536  209.891   23.371
  30.013  209.959   22.935
  30.508  210.029   22.509
  31.011  210.099   22.091
  31.511  210.169   21.671
  31.996  210.238   21.245
  32.460  210.306   20.809
  32.917  210.373   20.366
  33.382  210.440   19.922
  33.861  210.507   19.480
  34.350  210.576   19.042
  34.845  210.645   18.609
  35.338  210.715   18.182
  35.823  210.784   17.757
  36.306  210.854   17.335
  36.786  210.923   16.909
  37.262  210.991   16.479
  37.736  211.059   16.043
  38.210  211.127   15.603
  38.684  211.196   15.164
  39.159  211.264   14.727
  39.635  211.332   14.293
  40.113  211.401   13.861
  40.592  211.470   13.431
  41.067  211.539   13.000
  41.542  211.607   12.568
  42.017  211.676   12.134
  42.496  211.745   11.694
  42.975  211.814   11.249
  43.464  211.885   10.795
  43.962  211.958   10.313
  44.499  212.034    9.810
  45.085  212.118    9.259
  45.688  212.204    8.658
  46.299  212.290    8.039
  46.909  212.378    7.399
  47.505  212.463    6.725
  48.062  212.546    6.036
  48.507  212.624    5.325
  49.036  212.697    4.596
  49.548  212.767    3.844
  50.047  212.832    3.075
  50.500  212.894    2.287
  50.901  212.951    1.490
  51.276  213.005    0.678
  51.628  213.056   -0.157
  51.956  213.103   -0.985
  52.271  213.147   -1.833
  52.610  213.187   -2.686
  52.919  213.225   -3.544
  53.194  213.260   -4.410
  53.314  213.291   -5.282
  53.462  213.319   -6.160
  53.626  213.343   -7.043
  53.690  213.359   -7.931
  53.716  213.365   -8.818
  53.690  213.358   -9.697
  53.538  213.329  -10.544
  53.173  213.277  -11.308
  52.754  213.211  -11.995
  52.303  213.117  -12.568
  51.772  213.009  -13.117
  51.158  212.899  -13.534
  50.445  212.786  -13.919
  49.636  212.670  -14.279
  48.774  212.551  -14.611
  47.894  212.431  -15.092
  47.007  212.310  -15.372
  46.113  212.188  -15.527
  45.216  212.066  -15.706
  44.317  211.944  -15.898
  43.416  211.821  -16.079
  42.514  211.698  -16.251
  41.611  211.574  -16.415
  40.707  211.450  -16.605
  39.802  211.326  -16.732
  38.896  211.202  -16.851
  37.990  211.077  -16.982
  37.082  210.952  -17.103
  36.174  210.826  -17.209
  35.266  210.700  -17.298
  34.357  210.573  -17.359
  33.464  210.445  -17.405
  32.576  210.318  -17.438
  31.687  210.190  -17.462
  30.798  210.062  -17.478
  29.909  209.935  -17.491
  29.020  209.807  -17.501
  28.131  209.679  -17.510
  27.242  209.551  -17.519
  26.352  209.423  -17.531
  25.699  209.330  -17.539
  24.841  209.206  -17.546
  23.972  209.081  -17.554
  23.080  208.953  -17.554
  22.176  208.823  -17.553
  21.270  208.693  -17.549
  20.128  208.529  -17.548
  19.239  208.401  -17.548
  18.350  208.274  -17.551
  17.612  208.168  -17.555
  16.572  208.018  -17.562
  15.683  207.890  -17.562
  14.794  207.763  -17.555
  13.905  207.635  -17.541
  13.016  207.507  -17.527
  12.128  207.379  -17.511
  11.239  207.252  -17.496
  10.350  207.124  -17.482
   9.462  206.996  -17.467
   8.573  206.869  -17.442
   7.685  206.741  -17.418
   6.796  206.613  -17.370
   5.902  206.485  -17.321
   5.008  206.356  -17.271
   4.115  206.228  -17.223
   3.208  206.098  -17.178
   2.314  205.969  -17.136
   1.424  205.841  -17.093
   0.558  205.717  -17.050
  -0.310  205.592  -17.010
  -1.167  205.469  -16.979
  -1.834  205.373  -16.957
  -2.504  205.277  -16.935
  -3.170  205.181  -16.912
  -3.811  205.089  -16.887
  -4.447  204.997  -16.861
  -5.084  204.906  -16.837
  -5.721  204.815  -16.808
  -6.357  204.723  -16.779
  -7.002  204.630  -16.751
  -7.638  204.539  -16.725
  -8.273  204.448  -16.677
  -8.907  204.357  -16.620
  -9.542  204.265  -16.567
 -10.176  204.174  -16.522
 -10.810  204.083  -16.476
 -11.435  203.993  -16.426
 -12.069  203.902  -16.372
 -12.702  203.811  -16.315
 -13.335  203.720  -16.257
 -13.968  203.629  -16.197
 -14.600  203.539  -16.134
 -15.232  203.448  -16.063
 -15.864  203.357  -15.982
 -16.495  203.266  -15.904
 -17.125  203.176  -15.827
 -17.755  203.085  -15.733
 -18.385  202.995  -15.639
 -19.014  202.904  -15.545
 -19.643  202.814  -15.424
 -20.272  202.723  -15.317
 -20.900  202.633  -15.213
 -21.528  202.543  -15.109
 -22.156  202.453  -15.003
 -22.783  202.363  -14.896
 -23.409  202.273  -14.785
 -24.035  202.183  -14.672
 -24.660  202.093  -14.556
 -25.284  202.003  -14.426
 -25.906  201.914  -14.288
 -26.526  201.825  -14.145
 -27.143  201.736  -13.996
 -27.757  201.648  -13.834
 -28.363  201.561  -13.648
 -28.959  201.475  -13.442
 -29.538  201.392  -13.201
 -30.088  201.313  -12.918
 -30.631  201.235  -12.605
 -31.157  201.159  -12.258
 -31.659  201.087  -11.878
 -32.140  201.018  -11.476
 -32.613  200.950  -11.062
 -33.088  200.882  -10.643
 -33.566  200.813  -10.221
 -34.047  200.744   -9.797
 -34.533  200.674   -9.373
 -35.019  200.604   -8.950
 -35.506  200.534   -8.522
 -35.982  200.466   -8.085
 -36.365  200.411   -7.631
 -36.858  200.340   -7.157
 -37.231  200.285   -6.654
 -37.558  200.236   -6.122
 -37.887  200.188   -5.571
 -38.218  200.142   -5.013
 -38.549  200.097   -4.457
 -38.851  200.054   -3.907
 -39.153  200.011   -3.356
 -39.452  199.969   -2.795
 -39.736  199.929   -2.221
 -39.998  199.890   -1.639
 -40.253  199.852   -1.055
 -40.499  199.817   -0.466
 -40.711  199.786    0.135
 -40.885  199.761    0.749
 -41.028  199.741    1.374
 -41.150  199.723    2.007
 -41.255  199.708    2.645
 -41.345  199.695    3.285
 -41.425  199.684    3.925
 -41.497  199.673    4.566
 -41.562  199.664    5.208
 -41.618  199.656    5.851
 -41.660  199.650    6.496
 -41.690  199.646    7.141
 -41.710  199.643    7.786
 -41.719  199.641    8.432
 -41.719  199.641    9.079
 -41.704  199.644    9.726
 -41.668  199.649   10.376
 -41.605  199.658   11.028
 -41.702  200.626   10.941
 -41.626  200.637   11.603
 -41.521  200.651   12.267
 -41.414  200.668   12.930
 -41.283  200.686   13.593
 -41.138  200.707   14.256
 -40.983  200.730   14.918
 -40.809  200.754   15.589
 -40.660  200.776   16.236
 -40.500  200.799   16.893
 -40.344  200.821   17.551
 -40.189  200.844   18.210
 -40.029  200.867   18.869
 -39.865  200.890   19.526
 -39.695  200.915   20.180
 -39.498  200.948   20.840
 -39.296  200.972   21.471
 -39.047  201.014   22.115
 -38.798  201.043   22.727
 -38.520  201.084   23.341
 -38.236  201.126   23.951
 -37.943  201.169   24.559
 -37.644  201.212   25.166
 -37.335  201.255   25.771
 -37.028  201.298   26.373
 -36.722  201.342   26.976
 -36.414  201.386   27.578
 -36.106  201.430   28.177
 -35.789  201.476   28.770
 -35.458  201.524   29.355
 -35.103  201.575   29.929
 -34.734  201.627   30.492
 -34.349  201.683   31.041
 -33.943  201.741   31.578
 -33.520  201.802   32.101
 -33.082  201.865   32.612
 -32.627  201.930   33.107
 -32.156  201.998   33.588
 -31.673  202.067   34.056
 -31.179  202.138   34.515
 -30.679  202.210   34.968
 -30.176  202.283   35.416
 -29.667  202.356   35.857
 -29.138  202.429   36.297
 -28.616  202.504   36.726
 -28.112  202.579   37.149
 -27.585  202.655   37.570
 -27.057  202.731   37.989
 -26.528  202.806   38.405
 -25.999  202.881   38.829
 -25.469  202.956   39.257
 -24.956  203.030   39.688
 -24.441  203.103   40.120
 -23.921  203.178   40.549
 -23.399  203.253   40.971
 -22.873  203.329   41.386
 -22.343  203.406   41.788
 -21.808  203.485   42.179
 -21.261  203.564   42.551
 -20.702  203.644   42.918
 -20.136  203.725   43.264
 -19.561  203.808   43.597
 -18.971  203.892   43.916
 -18.372  203.976   44.226
 -17.765  204.062   44.532
 -17.149  204.148   44.831
 -16.548  204.235   45.120
 -15.948  204.321   45.391
 -15.332  204.406   45.635
 -14.707  204.495   45.847
 -14.067  204.586   46.023
 -13.418  204.679   46.162
 -12.762  204.773   46.268
 -12.101  204.868   46.349
 -11.441  204.964   46.404
 -10.776  205.059   46.436
 -10.106  205.155   46.443
  -9.439  205.251   46.443
  -8.771  205.347   46.426
  -8.104  205.442   46.397
  -7.437  205.538   46.359
  -6.767  205.634   46.309
  -6.101  205.728   46.241
  -5.437  205.823   46.161
  -4.777  205.918   46.073
  -4.116  206.013   45.966
  -3.456  206.108   45.843
  -2.840  206.202   45.717
  -2.154  206.297   45.567
  -1.510  206.391   45.400
  -0.875  206.483   45.224
  -0.305  206.571   45.029
   0.362  206.658   44.826
   0.966  206.745   44.611
   1.565  206.833   44.392
   2.169  206.921   44.171
   2.716  207.009   43.947
   3.325  207.097   43.711
   3.953  207.182   43.465
   4.543  207.267   43.210
   5.126  207.351   42.949
   5.709  207.435   42.669
   6.280  207.518   42.373
   6.848  207.601   42.070
   7.410  207.683   41.770
   7.964  207.763   41.451
   8.514  207.842   41.125
   9.063  207.921   40.788
   9.603  207.999   40.444
  10.142  208.076   40.098
  10.677  208.153   39.753
  11.217  208.231   39.409
  11.752  208.308   39.043
  12.278  208.383   38.672
  12.797  208.458   38.298
  13.311  208.532   37.917
  13.822  208.605   37.527
  14.331  208.678   37.130
  14.836  208.751   36.730
  15.333  208.822   36.327
  15.822  208.892   35.920
  16.307  208.962   35.507
  16.791  209.032   35.085
  17.273  209.101   34.653
  17.754  209.170   34.219
  18.241  209.238   33.790
  18.730  209.308   33.369
  19.221  209.377   32.946
  19.694  209.447   32.516
  20.171  209.515   32.080
  20.637  209.581   31.637
  21.088  209.646   31.187
  21.540  209.711   30.733
  21.998  209.777   30.278
  22.462  209.842   29.826
  22.932  209.908   29.380
  23.402  209.974   28.941
  23.872  210.042   28.505
  24.346  210.110   28.066
  24.826  210.178   27.624
  25.260  210.245   27.180
  25.720  210.312   26.737
  26.201  210.379   26.298
  26.680  210.447   25.859
  27.147  210.514   25.419
  27.601  210.581   24.975
  28.048  210.648   24.529
  28.508  210.716   24.084
  28.979  210.783   23.640
  29.449  210.851   23.197
  29.920  210.918   22.762
  30.397  210.987   22.337
  30.880  211.056   21.919
  31.365  211.126   21.499
  31.847  211.195   21.072
  32.322  211.264   20.636
  32.789  211.331   20.194
  33.256  211.398   19.751
  33.729  211.466   19.313
  34.207  211.535   18.882
  34.689  211.604   18.455
  35.173  211.673   18.033
  35.659  211.743   17.613
  36.147  211.813   17.195
  36.634  211.883   16.773
  37.119  211.953   16.347
  37.601  212.022   15.916
  38.080  212.091   15.483
  38.558  212.160   15.050
  39.035  212.228   14.618
  39.514  212.297   14.189
  40.007  212.366   13.762
  40.498  212.435   13.334
  40.987  212.504   12.906
  41.474  212.573   12.476
  41.957  212.642   12.043
  42.442  212.711   11.602
  42.925  212.780   11.156
  43.417  212.850   10.702
  43.923  212.929   10.216
  44.445  213.001    9.712
  45.011  213.084    9.172
  45.586  213.169    8.571
  46.184  213.256    7.949
  46.857  213.352    7.303
  47.383  213.428    6.617
  47.955  213.510    5.915
  48.507  213.590    5.194
  49.036  213.666    4.458
  49.548  213.739    3.705
  50.011  213.811    2.936
  50.361  213.885    2.150
  50.697  213.953    1.354
  51.038  214.018    0.542
  51.488  214.077   -0.302
  51.884  214.130   -1.118
  52.175  214.179   -1.960
  52.454  214.223   -2.810
  52.724  214.264   -3.663
  52.975  214.301   -4.525
  53.202  214.333   -5.395
  53.455  214.361   -6.271
  53.596  214.383   -7.152
  53.690  214.397   -8.037
  53.716  214.400   -8.923
  53.688  214.383   -9.801
  53.618  214.337  -10.639
  53.173  214.260  -11.319
  52.708  214.183  -12.000
  52.052  214.099  -12.568
  51.385  214.003  -13.114
  50.651  213.898  -13.534
  49.823  213.778  -13.904
  48.988  213.659  -14.279
  48.150  213.538  -14.611
  47.310  213.417  -14.914
  46.469  213.297  -15.195
  45.628  213.176  -15.372
  44.756  213.055  -15.527
  43.891  212.934  -15.706
  43.035  212.812  -15.898
  42.178  212.690  -16.079
  41.319  212.564  -16.251
  40.457  212.439  -16.415
  39.594  212.313  -16.618
  38.727  212.187  -16.800
  37.858  212.060  -16.939
  36.985  211.934  -17.068
  36.105  211.807  -17.184
  35.219  211.680  -17.276
  34.332  211.552  -17.345
  33.423  211.422  -17.397
  32.517  211.292  -17.433
  31.583  211.157  -17.459
  30.666  211.026  -17.476
  29.752  210.894  -17.488
  28.889  210.770  -17.498
  27.993  210.642  -17.506
  27.070  210.509  -17.514
  26.198  210.384  -17.525
  25.337  210.260  -17.532
  24.475  210.136  -17.539
  23.608  210.011  -17.544
  22.747  209.888  -17.544
  21.848  209.758  -17.540
  20.948  209.629  -17.536
  20.049  209.500  -17.534
  19.133  209.368  -17.534
  18.217  209.237  -17.534
  17.302  209.105  -17.535
  16.414  208.978  -17.540
  15.517  208.849  -17.540
  14.620  208.720  -17.533
  13.726  208.590  -17.519
  12.837  208.463  -17.506
  11.951  208.336  -17.490
  11.069  208.210  -17.473
  10.187  208.083  -17.458
   9.306  207.956  -17.442
   8.424  207.829  -17.421
   7.542  207.703  -17.399
   6.660  207.576  -17.355
   5.778  207.449  -17.308
   4.896  207.322  -17.269
   4.014  207.196  -17.223
   3.132  207.069  -17.178
   2.250  206.942  -17.136
   1.369  206.816  -17.093
   0.487  206.689  -17.050
  -0.395  206.562  -17.010
  -1.246  206.440  -16.979
  -1.915  206.344  -16.957
  -2.553  206.252  -16.935
  -3.191  206.160  -16.912
  -3.829  206.069  -16.887
  -4.467  205.977  -16.861
  -5.105  205.885  -16.837
  -5.743  205.794  -16.808
  -6.380  205.702  -16.779
  -7.018  205.610  -16.751
  -7.656  205.519  -16.729
  -8.293  205.427  -16.690
  -8.929  205.336  -16.651
  -9.566  205.244  -16.616
 -10.203  205.153  -16.561
 -10.840  205.061  -16.502
 -11.476  204.970  -16.443
 -12.113  204.878  -16.384
 -12.750  204.787  -16.326
 -13.386  204.695  -16.268
 -14.023  204.604  -16.210
 -14.660  204.512  -16.153
 -15.296  204.421  -16.081
 -15.932  204.329  -15.982
 -16.567  204.238  -15.904
 -17.202  204.147  -15.829
 -17.837  204.056  -15.752
 -18.471  203.965  -15.673
 -19.105  203.873  -15.565
 -19.739  203.782  -15.424
 -20.373  203.691  -15.317
 -21.007  203.600  -15.213
 -21.641  203.509  -15.109
 -22.274  203.418  -15.003
 -22.908  203.327  -14.896
 -23.541  203.236  -14.785
 -24.168  203.145  -14.670
 -24.787  203.054  -14.549
 -25.406  202.963  -14.420
 -26.025  202.872  -14.285
 -26.643  202.782  -14.145
 -27.260  202.691  -13.996
 -27.876  202.600  -13.834
 -28.491  202.510  -13.658
 -29.102  202.421  -13.459
 -29.706  202.337  -13.226
 -30.300  202.255  -12.955
 -30.882  202.176  -12.651
 -31.436  202.101  -12.310
 -31.945  202.028  -11.931
 -32.444  201.957  -11.532
 -32.934  201.886  -11.122
 -33.417  201.817  -10.708
 -33.895  201.748  -10.291
 -34.372  201.679   -9.870
 -34.850  201.611   -9.448
 -35.324  201.543   -9.024
 -35.795  201.475   -8.594
 -36.254  201.409   -8.154
 -36.696  201.346   -7.698
 -37.117  201.285   -7.226
 -37.512  201.228   -6.730
 -37.877  201.176   -6.208
 -38.218  201.127   -5.662
 -38.537  201.081   -5.104
 -38.846  201.037   -4.545
 -39.149  200.993   -3.994
 -39.441  200.949   -3.443
 -39.721  200.909   -2.881
 -39.991  200.871   -2.305
 -40.242  200.836   -1.719
 -40.479  200.802   -1.131
 -40.706  200.769   -0.540
 -40.888  200.739    0.061
 -41.085  200.713    0.677
 -41.243  200.692    1.303
 -41.350  200.677    1.937
 -41.434  200.665    2.574
 -41.509  200.654    3.213
 -41.579  200.644    3.853
 -41.642  200.635    4.493
 -41.697  200.627    5.134
 -41.741  200.621    5.776
 -41.776  200.616    6.419
 -41.801  200.612    7.063
 -41.817  200.610    7.706
 -41.817  200.609    8.351
 -41.816  200.610    8.995
 -41.795  200.613    9.642
 -41.758  200.618   10.290
 -41.702  200.626   10.941
 -41.800  201.593   10.800
 -41.702  201.603   11.462
 -41.626  201.617   12.125
 -41.520  201.635   12.785
 -41.378  201.655   13.445
 -41.231  201.676   14.105
 -41.082  201.698   14.764
 -40.927  201.720   15.430
 -40.763  201.743   16.076
 -40.593  201.768   16.730
 -40.421  201.792   17.385
 -40.251  201.817   18.040
 -40.080  201.841   18.695
 -39.906  201.867   19.348
 -39.724  201.893   20.000
 -39.533  201.920   20.656
 -39.320  201.950   21.290
 -39.079  201.983   21.930
 -38.818  202.020   22.543
 -38.540  202.061   23.155
 -38.250  202.102   23.762
 -37.950  202.145   24.367
 -37.646  202.188   24.969
 -37.348  202.232   25.570
 -37.046  202.275   26.169
 -36.728  202.320   26.767
 -36.414  202.364   27.365
 -36.106  202.409   27.961
 -35.789  202.455   28.553
 -35.458  202.503   29.138
 -35.116  202.553   29.712
 -34.750  202.605   30.275
 -34.364  202.661   30.825
 -33.963  202.719   31.362
 -33.549  202.779   31.886
 -33.116  202.842   32.395
 -32.664  202.907   32.888
 -32.191  202.975   33.366
 -31.704  203.045   33.830
 -31.207  203.117   34.283
 -30.705  203.189   34.729
 -30.199  203.261   35.170
 -29.689  203.335   35.606
 -29.154  203.414   36.043
 -28.635  203.489   36.466
 -28.123  203.560   36.882
 -27.591  203.636   37.297
 -27.058  203.713   37.707
 -26.531  203.789   38.117
 -26.009  203.865   38.532
 -25.492  203.941   38.950
 -24.967  204.016   39.371
 -24.439  204.090   39.793
 -23.916  204.164   40.214
 -23.394  204.239   40.631
 -22.861  204.316   41.042
 -22.320  204.394   41.438
 -21.771  204.473   41.807
 -21.225  204.551   42.179
 -20.657  204.633   42.534
 -20.069  204.717   42.870
 -19.501  204.799   43.198
 -18.900  204.885   43.514
 -18.313  204.969   43.828
 -17.728  205.054   44.141
 -17.139  205.138   44.451
 -16.548  205.223   44.751
 -15.948  205.309   45.033
 -15.332  205.398   45.287
 -14.708  205.488   45.507
 -14.074  205.580   45.689
 -13.419  205.673   45.833
 -12.780  205.767   45.942
 -12.101  205.862   46.028
 -11.441  205.957   46.087
 -10.776  206.053   46.124
 -10.107  206.149   46.142
  -9.491  206.245   46.142
  -8.789  206.341   46.135
  -8.125  206.437   46.112
  -7.459  206.532   46.075
  -6.795  206.629   46.024
  -6.132  206.724   45.955
  -5.471  206.820   45.871
  -4.812  206.915   45.778
  -4.157  207.010   45.668
  -3.506  207.104   45.542
  -2.858  207.193   45.412
  -2.214  207.292   45.260
  -1.575  207.384   45.094
  -0.944  207.475   44.915
  -0.333  207.557   44.719
   0.274  207.653   44.516
   0.881  207.740   44.300
   1.491  207.826   44.080
   2.103  207.913   43.857
   2.714  207.991   43.634
   3.303  208.076   43.398
   3.921  208.169   43.151
   4.510  208.254   42.897
   5.092  208.338   42.638
   5.676  208.421   42.359
   6.254  208.504   42.070
   6.831  208.585   41.770
   7.403  208.666   41.451
   7.960  208.745   41.125
   8.506  208.823   40.788
   9.052  208.902   40.444
   9.593  208.980   40.098
  10.134  209.057   39.753
  10.668  209.134   39.409
  11.201  209.211   39.047
  11.730  209.287   38.692
  12.255  209.362   38.321
  12.778  209.437   37.946
  13.295  209.512   37.565
  13.803  209.585   37.176
  14.307  209.657   36.783
  14.810  209.729   36.388
  15.312  209.801   35.989
  15.811  209.873   35.585
  16.305  209.944   35.176
  16.790  210.014   34.760
  17.272  210.083   34.335
  17.752  210.152   33.907
  18.229  210.222   33.482
  18.711  210.293   33.062
  19.196  210.363   32.641
  19.679  210.431   32.215
  20.152  210.500   31.784
  20.614  210.567   31.345
  21.066  210.631   30.899
  21.519  210.696   30.448
  21.976  210.762   29.999
  22.431  210.829   29.555
  22.886  210.896   29.115
  23.349  210.964   28.680
  23.820  211.032   28.247
  24.292  211.100   27.814
  24.764  211.169   27.377
  25.234  211.238   26.936
  25.700  211.305   26.495
  26.167  211.374   26.055
  26.636  211.446   25.616
  27.106  211.518   25.177
  27.573  211.587   24.736
  28.039  211.654   24.292
  28.508  211.718   23.850
  28.979  211.781   23.408
  29.449  211.846   22.966
  29.920  211.914   22.531
  30.397  211.985   22.107
  30.880  212.057   21.688
  31.365  212.129   21.268
  31.847  212.199   20.843
  32.322  212.266   20.407
  32.789  212.331   19.966
  33.256  212.398   19.526
  33.729  212.467   19.093
  34.207  212.537   18.666
  34.689  212.608   18.245
  35.173  212.680   17.828
  35.659  212.752   17.413
  36.147  212.825   16.998
  36.634  212.897   16.580
  37.119  212.968   16.157
  37.601  213.038   15.730
  38.080  213.108   15.302
  38.558  213.178   14.875
  39.035  213.248   14.451
  39.514  213.318   14.028
  40.007  213.387   13.605
  40.499  213.456   13.182
  40.993  213.525   12.758
  41.481  213.594   12.330
  41.964  213.661   11.899
  42.447  213.728   11.460
  42.926  213.794   11.014
  43.417  213.860   10.561
  43.923  213.927   10.083
  44.445  214.001    9.586
  45.023  214.092    9.033
  45.601  214.186    8.430
  46.184  214.278    7.805
  46.857  214.363    7.153
  47.383  214.440    6.462
  47.955  214.508    5.751
  48.486  214.569    5.009
  48.889  214.627    4.216
  49.276  214.682    3.416
  49.650  214.736    2.649
  50.047  214.788    1.873
  50.562  214.838    1.087
  51.022  214.886    0.284
  51.272  214.933   -0.566
  51.550  214.978   -1.346
  51.884  215.022   -2.171
  52.175  215.064   -3.002
  52.454  215.104   -3.834
  52.724  215.143   -4.673
  52.975  215.179   -5.524
  53.196  215.214   -6.374
  53.394  215.246   -7.230
  53.554  215.274   -8.088
  53.660  215.297   -8.947
  53.650  215.311   -9.801
  53.618  215.306  -10.639
  53.173  215.265  -11.352
  52.635  215.194  -12.000
  52.050  215.108  -12.568
  51.385  215.009  -13.117
  50.651  214.899  -13.539
  49.823  214.780  -13.919
  48.988  214.658  -14.279
  48.150  214.534  -14.611
  47.310  214.409  -14.914
  46.469  214.284  -15.195
  45.628  214.159  -15.372
  44.756  214.033  -15.527
  43.879  213.907  -15.706
  43.001  213.780  -15.898
  42.121  213.654  -16.079
  41.242  213.528  -16.251
  40.361  213.401  -16.415
  39.472  213.275  -16.618
  38.571  213.148  -16.800
  37.668  213.021  -16.939
  36.764  212.894  -17.068
  35.859  212.768  -17.184
  34.976  212.641  -17.276
  34.092  212.513  -17.345
  33.207  212.386  -17.395
  32.312  212.258  -17.431
  31.420  212.130  -17.457
  30.181  211.938  -17.474
  29.264  211.806  -17.485
  28.347  211.675  -17.494
  27.454  211.546  -17.501
  26.634  211.429  -17.508
  25.778  211.305  -17.518
  24.877  211.176  -17.525
  23.993  211.049  -17.532
  23.107  210.922  -17.534
  22.614  210.851  -17.534
  21.724  210.723  -17.529
  20.835  210.595  -17.529
  19.945  210.467  -17.523
  19.054  210.339  -17.518
  18.157  210.211  -17.514
  17.241  210.084  -17.514
  16.325  209.957  -17.513
  15.409  209.829  -17.513
  14.493  209.702  -17.505
  13.577  209.574  -17.490
  12.834  209.446  -17.480
  11.744  209.318  -17.465
  10.828  209.190  -17.447
   9.912  209.063  -17.434
   8.996  208.936  -17.421
   8.080  208.808  -17.399
   7.164  208.680  -17.376
   6.248  208.553  -17.351
   5.332  208.425  -17.308
   4.416  208.298  -17.263
   3.500  208.170  -17.218
   2.583  208.043  -17.175
   1.667  207.915  -17.139
   0.751  207.787  -17.101
  -0.165  207.660  -17.063
  -1.081  207.532  -17.028
  -1.915  207.409  -16.997
  -2.553  207.312  -16.966
  -3.191  207.220  -16.939
  -3.829  207.128  -16.913
  -4.467  207.037  -16.888
  -5.105  206.945  -16.863
  -5.743  206.853  -16.840
  -6.380  206.761  -16.817
  -7.018  206.669  -16.795
  -7.656  206.577  -16.773
  -8.293  206.486  -16.749
  -8.929  206.394  -16.725
  -9.566  206.302  -16.684
 -10.203  206.210  -16.649
 -10.840  206.118  -16.604
 -11.476  206.026  -16.543
 -12.113  205.935  -16.476
 -12.750  205.843  -16.458
 -13.386  205.751  -16.382
 -14.023  205.659  -16.326
 -14.660  205.568  -16.257
 -15.296  205.476  -16.197
 -15.932  205.385  -16.134
 -16.567  205.294  -16.063
 -17.202  205.203  -15.982
 -17.837  205.113  -15.879
 -18.471  205.023  -15.772
 -19.105  204.933  -15.673
 -19.732  204.843  -15.565
 -20.346  204.754  -15.440
 -20.958  204.664  -15.328
 -21.571  204.575  -15.214
 -22.182  204.485  -15.103
 -22.794  204.396  -14.993
 -23.405  204.306  -14.883
 -24.015  204.217  -14.771
 -24.625  204.128  -14.657
 -25.234  204.039  -14.540
 -25.843  203.950  -14.411
 -26.451  203.861  -14.283
 -27.058  203.772  -14.152
 -27.665  203.684  -14.014
 -28.270  203.595  -13.864
 -28.873  203.507  -13.697
 -29.474  203.419  -13.507
 -30.066  203.332  -13.283
 -30.610  203.247  -13.022
 -31.119  203.163  -12.731
 -31.629  203.084  -12.400
 -32.135  203.009  -12.022
 -32.629  202.935  -11.626
 -33.113  202.861  -11.220
 -33.595  202.789  -10.809
 -34.082  202.717  -10.396
 -34.570  202.648   -9.978
 -35.054  202.578   -9.556
 -35.529  202.510   -9.131
 -35.990  202.442   -8.697
 -36.435  202.376   -8.259
 -36.864  202.311   -7.810
 -37.274  202.249   -7.345
 -37.669  202.191   -6.857
 -38.053  202.137   -6.341
 -38.428  202.087   -5.797
 -38.786  202.045   -5.237
 -39.122  202.005   -4.676
 -39.433  201.954   -4.123
 -39.710  201.910   -3.573
 -39.950  201.867   -3.012
 -40.201  201.828   -2.438
 -40.443  201.791   -1.857
 -40.681  201.757   -1.266
 -40.888  201.725   -0.672
 -41.085  201.697   -0.070
 -41.254  201.673    0.548
 -41.390  201.653    1.181
 -41.493  201.638    1.815
 -41.575  201.627    2.452
 -41.645  201.617    3.090
 -41.708  201.607    3.729
 -41.765  201.599    4.368
 -41.814  201.592    5.008
 -41.854  201.587    5.649
 -41.885  201.582    6.290
 -41.906  201.579    6.932
 -41.917  201.577    7.574
 -41.917  201.577    8.217
 -41.912  201.578    8.860
 -41.892  201.581    9.505
 -41.858  201.586   10.151
 -41.800  201.593   10.800
 -41.883  202.565   10.702
 -41.800  202.577   11.359
 -41.694  202.592   12.018
 -41.569  202.610   12.676
 -41.431  202.630   13.332
 -41.279  202.651   13.988
 -41.113  202.675   14.642
 -40.942  202.700   15.300
 -40.774  202.724   15.945
 -40.610  202.748   16.595
 -40.443  202.772   17.246
 -40.274  202.796   17.897
 -40.103  202.820   18.548
 -39.927  202.846   19.197
 -39.741  202.872   19.845
 -39.540  202.901   20.494
 -39.328  202.933   21.127
 -39.097  202.968   21.761
 -38.837  203.005   22.373
 -38.556  203.045   22.983
 -38.265  203.087   23.588
 -37.969  203.130   24.189
 -37.669  203.174   24.786
 -37.366  203.218   25.381
 -37.046  203.263   25.975
 -36.728  203.307   26.568
 -36.411  203.352   27.163
 -36.096  203.396   27.753
 -35.782  203.441   28.342
 -35.458  203.488   28.925
 -35.122  203.537   29.500
 -34.766  203.590   30.064
 -34.379  203.645   30.614
 -33.973  203.703   31.151
 -33.554  203.762   31.673
 -33.120  203.825   32.181
 -32.665  203.890   32.672
 -32.196  203.957   33.148
 -31.713  204.026   33.609
 -31.215  204.098   34.058
 -30.709  204.170   34.497
 -30.202  204.243   34.932
 -29.692  204.317   35.361
 -29.179  204.390   35.791
 -28.659  204.465   36.210
 -28.134  204.540   36.621
 -27.606  204.616   37.030
 -27.077  204.692   37.434
 -26.549  204.768   37.837
 -26.022  204.844   38.243
 -25.494  204.920   38.650
 -24.967  204.996   39.060
 -24.439  205.071   39.469
 -23.916  205.147   39.881
 -23.394  205.224   40.291
 -22.861  205.301   40.696
 -22.320  205.379   41.084
 -21.771  205.458   41.438
 -21.202  205.538   41.807
 -20.623  205.620   42.142
 -20.044  205.703   42.468
 -19.462  205.787   42.790
 -18.876  205.871   43.103
 -18.290  205.955   43.419
 -17.705  206.039   43.736
 -17.120  206.123   44.052
 -16.532  206.208   44.358
 -15.948  206.293   44.645
 -15.332  206.381   44.905
 -14.708  206.470   45.131
 -14.074  206.561   45.319
 -13.430  206.653   45.468
 -12.780  206.747   45.580
 -12.127  206.841   45.674
 -11.475  206.934   45.739
 -10.817  207.029   45.784
 -10.154  207.124   45.812
  -9.491  207.219   45.825
  -8.829  207.315   45.825
  -8.168  207.410   45.808
  -7.506  207.505   45.775
  -6.840  207.600   45.725
  -6.197  207.686   45.657
  -5.521  207.790   45.571
  -4.867  207.884   45.473
  -4.212  207.978   45.360
  -3.558  208.072   45.232
  -2.899  208.158   45.098
  -2.241  208.257   44.942
  -1.587  208.349   44.776
  -0.947  208.440   44.595
  -0.345  208.529   44.399
   0.259  208.621   44.198
   0.836  208.703   43.982
   1.434  208.789   43.763
   2.038  208.876   43.540
   2.667  208.967   43.316
   3.222  209.046   43.080
   3.811  209.131   42.833
   4.398  209.215   42.578
   4.978  209.299   42.320
   5.559  209.382   42.036
   6.128  209.464   41.743
   6.692  209.545   41.440
   7.248  209.625   41.112
   7.794  209.703   40.780
   8.421  209.794   40.443
   8.874  209.859   40.092
   9.409  209.936   39.744
   9.946  210.013   39.394
  10.480  210.089   39.047
  11.016  210.166   38.692
  11.545  210.242   38.334
  12.065  210.317   37.965
  12.579  210.391   37.590
  13.089  210.464   37.208
  13.597  210.537   36.822
  14.106  210.610   36.434
  14.616  210.684   36.045
  15.122  210.756   35.651
  15.621  210.828   35.251
  16.121  210.900   34.848
  16.618  210.971   34.439
  17.104  211.041   34.021
  17.579  211.110   33.599
  18.055  211.178   33.176
  18.538  211.247   32.756
  19.025  211.317   32.336
  19.513  211.387   31.914
  19.994  211.457   31.488
  20.467  211.524   31.053
  20.929  211.591   30.610
  21.382  211.656   30.164
  21.836  211.721   29.722
  22.303  211.788   29.286
  22.779  211.857   28.854
  23.258  211.926   28.425
  23.739  211.995   27.997
  24.219  212.064   27.568
  24.694  212.132   27.135
  25.163  212.199   26.698
  25.626  212.266   26.257
  26.090  212.333   25.816
  26.557  212.400   25.376
  27.024  212.467   24.936
  27.490  212.534   24.496
  27.952  212.600   24.056
  28.415  212.667   23.616
  28.884  212.734   23.179
  29.358  212.802   22.741
  29.835  212.871   22.308
  30.314  212.940   21.883
  30.795  213.009   21.462
  31.274  213.078   21.042
  31.753  213.146   20.617
  32.231  213.215   20.186
  32.708  213.284   19.751
  33.186  213.352   19.317
  33.665  213.421   18.890
  34.148  213.491   18.468
  34.636  213.561   18.052
  35.126  213.631   17.638
  35.617  213.702   17.226
  36.106  213.772   16.813
  36.594  213.842   16.397
  37.078  213.912   15.977
  37.561  213.981   15.555
  38.045  214.051   15.133
  38.532  214.120   14.713
  39.022  214.191   14.296
  39.514  214.262   13.881
  40.007  214.332   13.467
  40.499  214.403   13.051
  40.993  214.473   12.633
  41.481  214.543   12.210
  41.964  214.613   11.784
  42.447  214.682   11.349
  42.926  214.752   10.907
  43.417  214.822   10.455
  43.923  214.895    9.983
  44.445  214.970    9.486
  45.023  215.051    8.920
  45.601  215.134    8.316
  46.165  215.216    7.690
  46.723  215.298    7.033
  47.266  215.376    6.342
  47.778  215.449    5.633
  48.257  215.518    4.908
  48.698  215.581    4.170
  49.112  215.641    3.414
  49.613  215.696    2.604
  50.011  215.750    1.789
  50.361  215.804    1.006
  50.697  215.856    0.207
  51.022  215.917   -0.629
  51.272  215.951   -1.400
  51.550  215.996   -2.171
  51.683  216.039   -3.002
  51.930  216.081   -3.834
  52.210  216.121   -4.673
  52.479  216.160   -5.524
  52.735  216.197   -6.374
  52.982  216.232   -7.230
  53.228  216.265   -8.088
  53.457  216.294   -8.947
  53.457  216.315   -9.800
  53.173  216.298  -10.628
  52.635  216.220  -11.352
  52.050  216.123  -12.000
  51.469  216.017  -12.568
  50.940  215.904  -13.114
  50.111  215.785  -13.539
  49.256  215.662  -13.904
  48.385  215.536  -14.229
  47.507  215.410  -14.523
  46.624  215.283  -14.798
  45.737  215.156  -15.058
  44.849  215.028  -15.304
  43.956  214.900  -15.653
  43.063  214.772  -15.808
  42.167  214.643  -15.996
  41.270  214.514  -16.196
  40.372  214.385  -16.376
  39.472  214.256  -16.552
  38.571  214.126  -16.710
  37.668  213.996  -16.852
  36.764  213.867  -16.979
  35.859  213.736  -17.095
  34.976  213.610  -17.197
  34.092  213.482  -17.281
  33.207  213.355  -17.345
  32.312  213.227  -17.395
  31.420  213.099  -17.430
  30.571  212.977  -17.455
  29.719  212.854  -17.472
  28.862  212.731  -17.479
  28.007  212.608  -17.485
  27.155  212.486  -17.494
  26.374  212.373  -17.501
  25.504  212.248  -17.511
  24.590  212.117  -17.519
  23.692  211.988  -17.526
  22.720  211.848  -17.529
  21.807  211.717  -17.529
  20.970  211.597  -17.529
  20.048  211.464  -17.524
  19.073  211.324  -17.519
  18.165  211.193  -17.514
  17.278  211.061  -17.511
  16.393  210.929  -17.502
  15.506  210.798  -17.492
  14.616  210.666  -17.485
  13.726  210.534  -17.475
  12.976  210.448  -17.457
  11.947  210.271  -17.446
  11.057  210.139  -17.430
  10.171  210.008  -17.411
   9.289  209.876  -17.397
   8.401  209.745  -17.383
   7.511  209.613  -17.376
   6.622  209.481  -17.351
   5.734  209.350  -17.308
   4.847  209.218  -17.276
   3.959  209.086  -17.242
   3.072  208.955  -17.209
   2.184  208.823  -17.175
   1.296  208.691  -17.139
   0.408  208.560  -17.101
  -0.482  208.428  -17.063
  -1.333  208.296  -17.028
  -2.007  208.170  -16.997
  -2.878  208.075  -16.966
  -3.541  207.984  -16.939
  -4.168  207.894  -16.913
  -4.795  207.804  -16.888
  -5.422  207.714  -16.861
  -6.049  207.624  -16.835
  -6.676  207.534  -16.807
  -7.303  207.444  -16.779
  -7.930  207.354  -16.751
  -8.557  207.264  -16.740
  -9.184  207.174  -16.712
  -9.811  207.083  -16.684
 -10.438  206.993  -16.649
 -11.065  206.903  -16.615
 -11.691  206.813  -16.576
 -12.316  206.724  -16.525
 -12.939  206.635  -16.464
 -13.561  206.545  -16.406
 -14.182  206.456  -16.340
 -14.802  206.367  -16.273
 -15.423  206.278  -16.217
 -16.056  206.190  -16.133
 -16.686  206.101  -16.054
 -17.314  206.013  -15.965
 -17.941  205.924  -15.870
 -18.566  205.836  -15.772
 -19.191  205.748  -15.663
 -19.815  205.660  -15.553
 -20.439  205.572  -15.440
 -21.061  205.484  -15.328
 -21.684  205.396  -15.214
 -22.305  205.308  -15.103
 -22.927  205.220  -14.993
 -23.547  205.132  -14.881
 -24.168  205.045  -14.768
 -24.787  204.957  -14.653
 -25.406  204.870  -14.535
 -26.025  204.782  -14.411
 -26.643  204.695  -14.283
 -27.260  204.608  -14.156
 -27.876  204.521  -14.024
 -28.491  204.434  -13.881
 -29.102  204.348  -13.723
 -29.706  204.263  -13.542
 -30.300  204.185  -13.328
 -30.882  204.111  -13.078
 -31.437  204.038  -12.798
 -31.958  203.965  -12.474
 -32.471  203.894  -12.099
 -32.982  203.825  -11.705
 -33.489  203.756  -11.300
 -33.989  203.686  -10.890
 -34.471  203.616  -10.477
 -34.952  203.546  -10.058
 -35.428  203.478   -9.635
 -35.900  203.412   -9.208
 -36.364  203.348   -8.772
 -36.813  203.286   -8.336
 -37.243  203.227   -7.891
 -37.649  203.170   -7.429
 -38.026  203.115   -6.945
 -38.369  203.061   -6.433
 -38.661  203.010   -5.894
 -38.941  202.961   -5.338
 -39.294  202.917   -4.779
 -39.603  202.877   -4.223
 -39.900  202.842   -3.664
 -40.177  202.806   -3.096
 -40.433  202.772   -2.513
 -40.670  202.737   -1.921
 -40.888  202.704   -1.328
 -41.085  202.673   -0.733
 -41.254  202.646   -0.130
 -41.427  202.624    0.486
 -41.586  202.607    1.111
 -41.681  202.594    1.743
 -41.757  202.583    2.378
 -41.820  202.574    3.014
 -41.873  202.566    3.651
 -41.920  202.559    4.289
 -41.958  202.554    4.927
 -41.987  202.550    5.566
 -42.008  202.547    6.205
 -42.020  202.545    6.845
 -42.021  202.544    7.485
 -42.021  202.545    8.126
 -42.006  202.547    8.767
 -41.979  202.551    9.410
 -41.939  202.557   10.055
 -41.883  202.565   10.702
 -41.961  203.536   10.623
 -41.883  203.546   11.276
 -41.789  203.560   11.931
 -41.662  203.579   12.584
 -41.521  203.599   13.236
 -41.366  203.621   13.887
 -41.195  203.646   14.536
 -41.018  203.671   15.186
 -40.842  203.696   15.829
 -40.671  203.721   16.474
 -40.501  203.745   17.120
 -40.330  203.770   17.766
 -40.158  203.795   18.412
 -39.979  203.821   19.057
 -39.789  203.848   19.700
 -39.585  203.877   20.342
 -39.362  203.909   20.971
 -39.117  203.944   21.597
 -38.855  203.982   22.208
 -38.580  204.022   22.815
 -38.295  204.063   23.418
 -37.999  204.105   24.015
 -37.689  204.150   24.608
 -37.368  204.196   25.198
 -37.046  204.242   25.785
 -36.728  204.288   26.371
 -36.411  204.333   26.960
 -36.096  204.379   27.543
 -35.782  204.424   28.126
 -35.458  204.471   28.707
 -35.122  204.518   29.281
 -34.770  204.569   29.845
 -34.398  204.622   30.397
 -34.005  204.679   30.935
 -33.590  204.739   31.456
 -33.156  204.801   31.961
 -32.706  204.866   32.451
 -32.243  204.932   32.924
 -31.764  205.001   33.383
 -31.268  205.072   33.830
 -30.760  205.145   34.264
 -30.249  205.219   34.693
 -29.734  205.293   35.116
 -29.215  205.367   35.540
 -28.693  205.442   35.952
 -28.170  205.517   36.358
 -27.645  205.593   36.762
 -27.116  205.669   37.159
 -26.583  205.746   37.556
 -26.051  205.822   37.952
 -25.519  205.898   38.347
 -24.987  205.975   38.747
 -24.457  206.051   39.145
 -23.933  206.126   39.547
 -23.408  206.202   39.949
 -22.873  206.279   40.346
 -22.328  206.357   40.703
 -21.771  206.437   41.084
 -21.202  206.519   41.423
 -20.623  206.602   41.745
 -20.044  206.686   42.063
 -19.462  206.772   42.378
 -18.876  206.858   42.690
 -18.290  206.944   43.006
 -17.705  207.029   43.325
 -17.120  207.110   43.644
 -16.532  207.191   43.953
 -15.952  207.273   44.244
 -15.355  207.359   44.507
 -14.728  207.449   44.739
 -14.078  207.543   44.932
 -13.430  207.637   45.089
 -12.888  207.707   45.206
 -12.127  207.827   45.309
 -11.475  207.922   45.380
 -10.817  208.018   45.433
 -10.154  208.113   45.469
  -9.628  208.177   45.497
  -8.829  208.303   45.497
  -8.168  208.398   45.494
  -7.506  208.494   45.465
  -6.840  208.589   45.417
  -6.246  208.684   45.349
  -5.521  208.779   45.263
  -4.867  208.874   45.161
  -4.212  208.968   45.045
  -3.559  209.062   44.916
  -2.961  209.155   44.776
  -2.269  209.247   44.619
  -1.629  209.339   44.452
  -0.999  209.430   44.271
  -0.380  209.516   44.078
   0.246  209.601   43.878
   0.833  209.685   43.664
   1.420  209.770   43.446
   2.011  209.855   43.222
   2.609  209.940   42.996
   3.206  210.026   42.760
   3.798  210.111   42.512
   4.382  210.195   42.255
   4.768  210.250   41.997
   5.518  210.359   41.707
   6.074  210.438   41.410
   6.474  210.496   41.103
   7.161  210.595   40.768
   7.682  210.670   40.431
   8.204  210.744   40.090
   8.743  210.822   39.738
   9.278  210.899   39.390
   9.814  210.976   39.040
  10.344  211.052   38.691
  10.876  211.129   38.335
  11.405  211.205   37.979
  11.927  211.280   37.613
  12.444  211.354   37.240
  12.959  211.428   36.861
  13.475  211.502   36.479
  13.990  211.576   36.096
  14.502  211.650   35.712
  15.010  211.723   35.324
  15.514  211.795   34.930
  16.016  211.867   34.533
  16.512  211.938   34.130
  16.999  212.008   33.719
  17.478  212.077   33.302
  17.951  212.145   32.883
