   9.791   32.932   11.153
   9.810   32.932   10.926
   9.825   32.932   10.702
   9.833   32.932   10.484
   9.834   32.932   10.272
   9.828   32.932   10.068
   9.816   32.932    9.872
   9.799   32.932    9.685
   9.782   32.932    9.504
   9.765   32.931    9.330
   9.753   32.931    9.159
   9.745   32.931    8.992
   9.742   32.931    8.826
   9.743   32.931    8.660
   9.748   32.931    8.494
   9.755   32.931    8.327
   9.761   32.931    8.160
   9.768   32.931    7.993
   9.773   32.931    7.825
   9.776   32.931    7.659
   9.777   32.932    7.494
   9.777   32.932    7.330
   9.775   32.931    7.170
   9.770   32.931    7.010
   9.763   32.931    6.853
   9.752   32.931    6.696
   9.739   32.931    6.539
   9.722   32.931    6.381
   9.703   32.931    6.221
   9.680   32.930    6.059
   9.654   32.930    5.890
   9.624   32.930    5.723
   9.591   32.929    5.555
   9.554   32.929    5.386
   9.511   32.928    5.213
   9.461   32.928    5.041
   9.405   32.927    4.873
   9.341   32.926    4.709
   9.271   32.925    4.548
   9.195   32.924    4.388
   9.114   32.924    4.231
   9.031   32.923    4.073
   8.950   32.922    3.915
   8.874   32.921    3.758
   8.806   32.920    3.600
   8.748   32.919    3.441
   8.700   32.919    3.279
   8.663   32.918    3.117
   8.632   32.918    2.955
   8.602   32.917    2.798
   8.568   32.917    2.645
   8.526   32.916    2.498
   8.469   32.916    2.358
   8.396   32.915    2.225
   8.306   32.914    2.099
   8.200   32.913    1.977
   8.081   32.911    1.856
   7.952   32.910    1.738
   7.815   32.908    1.621
   7.671   32.906    1.508
   7.524   32.904    1.397
   7.373   32.903    1.289
   7.222   32.901    1.185
   7.069   32.899    1.086
   6.915   32.897    0.992
   6.761   32.895    0.901
   6.608   32.893    0.812
   6.455   32.891    0.727
   6.300   32.890    0.643
   6.142   32.888    0.563
   5.982   32.886    0.484
   5.817   32.884    0.408
   5.649   32.882    0.333
   5.477   32.880    0.261
   5.303   32.878    0.189
   5.127   32.876    0.120
   4.950   32.873    0.052
   4.772   32.871   -0.013
   4.593   32.869   -0.076
   4.414   32.867   -0.137
   4.233   32.865   -0.194
   4.052   32.863   -0.248
   3.870   32.860   -0.299
   3.686   32.858   -0.346
   3.502   32.856   -0.389
   3.316   32.854   -0.429
   3.130   32.851   -0.464
   2.942   32.849   -0.496
   2.753   32.847   -0.523
   2.564   32.845   -0.548
   2.374   32.842   -0.569
   2.183   32.840   -0.587
   1.992   32.838   -0.603
   1.801   32.835   -0.617
   1.611   32.833   -0.629
   1.420   32.831   -0.639
   1.230   32.829   -0.647
   1.041   32.826   -0.652
   0.853   32.824   -0.655
   0.666   32.822   -0.654
   0.482   32.820   -0.649
   0.301   32.817   -0.640
   0.122   32.815   -0.626
  -0.053   32.813   -0.606
  -0.225   32.811   -0.580
  -0.393   32.809   -0.550
  -0.558   32.807   -0.514
  -0.721   32.805   -0.473
  -0.882   32.803   -0.428
  -1.040   32.801   -0.377
  -1.198   32.799   -0.321
  -1.354   32.797   -0.261
  -1.510   32.796   -0.197
  -1.664   32.794   -0.129
  -1.817   32.792   -0.056
  -1.967   32.790    0.020
  -2.116   32.788    0.099
  -2.264   32.786    0.182
  -2.410   32.785    0.268
  -2.554   32.783    0.357
  -2.699   32.781    0.449
  -2.843   32.780    0.546
  -2.987   32.778    0.647
  -3.130   32.776    0.752
  -3.272   32.774    0.861
  -3.414   32.773    0.975
  -3.555   32.771    1.091
  -3.696   32.769    1.208
  -3.837   32.768    1.326
  -3.977   32.766    1.443
  -4.116   32.764    1.560
  -4.253   32.763    1.676
  -4.388   32.761    1.791
  -4.519   32.759    1.906
  -4.646   32.758    2.022
  -4.768   32.756    2.141
  -4.886   32.755    2.262
  -5.002   32.754    2.385
  -5.114   32.752    2.510
  -5.223   32.751    2.637
  -5.326   32.750    2.767
  -5.423   32.748    2.901
  -5.510   32.747    3.041
  -5.586   32.746    3.188
  -5.651   32.746    3.340
  -5.703   32.745    3.500
  -5.745   32.745    3.668
  -5.780   32.744    3.841
  -5.809   32.744    4.018
  -5.835   32.743    4.193
  -5.861   32.743    4.369
  -5.887   32.743    4.545
  -5.913   32.743    4.720
  -5.939   32.742    4.898
  -5.966   32.742    5.076
  -5.992   32.742    5.253
  -6.017   32.741    5.424
  -6.040   32.741    5.595
  -6.060   32.741    5.769
  -6.078   32.741    5.942
  -6.092   32.740    6.111
  -6.102   32.740    6.280
  -6.109   32.740    6.448
  -6.114   32.740    6.615
  -6.118   32.740    6.782
  -6.122   32.740    6.950
  -6.127   32.740    7.117
  -6.133   32.740    7.285
  -6.142   32.740    7.455
  -6.151   32.740    7.625
  -6.159   32.740    7.796
  -6.167   32.739    7.966
  -6.174   32.739    8.137
  -6.178   32.739    8.308
  -6.178   32.739    8.477
  -6.175   32.739    8.645
  -6.168   32.739    8.814
  -6.157   32.740    8.982
  -6.143   32.740    9.151
  -6.126   32.740    9.320
  -6.106   32.740    9.486
  -6.085   32.740    9.651
  -6.063   32.741    9.815
  -6.043   32.741    9.977
  -6.024   32.741   10.140
  -6.007   32.741   10.303
  -7.925   33.495   12.802
  -7.842   33.496   13.226
  -7.800   33.496   13.448
  -7.762   33.497   13.677
  -7.728   33.497   13.913
  -7.699   33.497   14.156
  -7.674   33.498   14.405
  -7.650   33.498   14.660
  -7.627   33.498   14.916
  -7.601   33.499   15.171
  -7.571   33.499   15.425
  -7.535   33.499   15.679
  -7.493   33.500   15.932
  -7.444   33.500   16.183
  -7.389   33.501   16.433
  -7.330   33.502   16.682
  -7.267   33.503   16.931
  -7.201   33.503   17.179
  -7.130   33.504   17.425
  -7.056   33.505   17.671
  -6.978   33.506   17.916
  -6.899   33.507   18.160
  -6.820   33.508   18.405
  -6.741   33.509   18.650
  -6.664   33.510   18.896
  -6.590   33.511   19.143
  -6.522   33.512   19.391
  -6.458   33.512   19.640
  -6.398   33.513   19.891
  -6.337   33.514   20.141
  -6.276   33.515   20.392
  -6.212   33.515   20.642
  -6.145   33.516   20.891
  -6.073   33.517   21.138
  -5.995   33.518   21.385
  -5.913   33.519   21.629
  -5.827   33.520   21.873
  -5.741   33.521   22.116
  -5.656   33.522   22.359
  -5.572   33.523   22.602
  -5.491   33.524   22.846
  -5.413   33.525   23.091
  -5.339   33.526   23.337
  -5.268   33.527   23.584
  -5.196   33.528   23.831
  -5.123   33.528   24.078
  -5.048   33.529   24.324
  -4.969   33.530   24.570
  -4.886   33.531   24.814
  -4.799   33.532   25.057
  -4.708   33.533   25.299
  -4.613   33.535   25.540
  -4.516   33.536   25.780
  -4.413   33.537   26.018
  -4.305   33.538   26.254
  -4.192   33.540   26.488
  -4.074   33.541   26.719
  -3.952   33.542   26.947
  -3.825   33.544   27.173
  -3.695   33.545   27.397
  -3.565   33.547   27.619
  -3.434   33.549   27.840
  -3.303   33.550   28.059
  -3.172   33.552   28.272
  -3.038   33.553   28.474
  -2.900   33.555   28.665
  -2.756   33.557   28.841
  -2.603   33.559   29.003
  -2.440   33.561   29.148
  -2.270   33.563   29.278
  -2.091   33.565   29.401
  -1.908   33.567   29.525
  -1.721   33.569   29.651
  -1.531   33.572   29.779
  -1.341   33.574   29.914
  -1.151   33.576   30.056
  -0.964   33.578   30.209
  -0.779   33.581   30.367
  -0.596   33.583   30.527
  -0.415   33.585   30.687
  -0.238   33.587   30.842
  -0.062   33.589   30.987
   0.114   33.591   31.116
   0.293   33.594   31.221
   0.475   33.596   31.301
   0.661   33.598   31.352
   0.850   33.600   31.377
   1.046   33.603   31.379
   1.246   33.605   31.369
   1.449   33.608   31.353
   1.655   33.610   31.340
   1.861   33.613   31.338
   2.067   33.615   31.354
   2.274   33.617   31.391
   2.476   33.620   31.446
   2.675   33.622   31.513
   2.871   33.625   31.582
   3.063   33.627   31.643
   3.254   33.629   31.684
   3.443   33.632   31.692
   3.632   33.634   31.665
   3.823   33.636   31.601
   4.015   33.638   31.500
   4.207   33.641   31.368
   4.399   33.643   31.213
   4.590   33.645   31.042
   4.778   33.648   30.860
   4.963   33.650   30.672
   5.142   33.652   30.478
   5.314   33.654   30.282
   5.481   33.656   30.082
   5.640   33.658   29.880
   5.791   33.660   29.673
   5.932   33.662   29.464
   6.064   33.663   29.251
   6.188   33.665   29.036
   6.304   33.666   28.817
   6.415   33.667   28.596
   6.522   33.669   28.371
   6.627   33.670   28.145
   6.729   33.671   27.916
   6.831   33.672   27.685
   6.932   33.674   27.453
   7.033   33.675   27.219
   7.135   33.676   26.985
   7.238   33.677   26.751
   7.345   33.679   26.517
   7.456   33.680   26.283
   7.573   33.681   26.051
   7.694   33.683   25.818
   7.818   33.684   25.585
   7.942   33.686   25.350
   8.064   33.687   25.113
   8.182   33.689   24.874
   8.294   33.690   24.631
   8.399   33.691   24.384
   8.499   33.692   24.134
   8.593   33.694   23.880
   8.685   33.695   23.624
   8.775   33.696   23.366
   8.863   33.697   23.106
   8.952   33.698   22.847
   9.043   33.699   22.588
   9.137   33.700   22.331
   9.234   33.701   22.075
   9.332   33.703   21.820
   9.431   33.704   21.565
   9.530   33.705   21.312
   9.626   33.706   21.057
   9.716   33.707   20.801
   9.800   33.708   20.542
   9.877   33.709   20.281
   9.949   33.710   20.018
  10.019   33.711   19.754
  10.088   33.712   19.488
  10.157   33.712   19.223
  10.228   33.713   18.957
  10.302   33.714   18.692
  10.380   33.715   18.427
  10.459   33.716   18.162
  10.538   33.717   17.897
  10.617   33.718   17.632
  10.696   33.719   17.366
  10.773   33.720   17.099
  10.850   33.721   16.832
  10.925   33.722   16.565
  10.999   33.723   16.296
  11.072   33.723   16.028
  11.143   33.724   15.758
  11.211   33.725   15.488
  11.278   33.726   15.216
  11.342   33.727   14.942
  11.404   33.727   14.667
  11.463   33.728   14.390
  11.519   33.729   14.111
  11.572   33.729   13.832
  11.619   33.730   13.553
  11.660   33.731   13.275
  11.695   33.731   13.001
  11.723   33.731   12.731
  11.746   33.732   12.466
  11.764   33.732   12.207
  11.780   33.732   11.954
  11.797   33.732   11.705
  11.814   33.732   11.459
  11.833   33.733   11.217
  11.853   33.733   10.975
  11.873   33.733   10.734
  11.892   33.733   10.493
  11.909   33.734   10.252
  11.923   33.734   10.011
  11.935   33.734    9.769
  11.943   33.734    9.527
  11.950   33.734    9.286
  11.956   33.734    9.044
  11.961   33.734    8.803
  11.965   33.734    8.562
  11.968   33.734    8.321
  11.968   33.734    8.081
  11.964   33.734    7.841
  11.956   33.734    7.601
  11.942   33.734    7.361
  11.923   33.734    7.121
  11.899   33.733    6.881
  11.870   33.733    6.641
  11.838   33.733    6.402
  11.800   33.732    6.163
  11.758   33.732    5.926
  11.710   33.731    5.692
  11.654   33.730    5.461
  11.590   33.730    5.234
  11.516   33.729    5.013
  11.435   33.728    4.798
  11.347   33.727    4.585
  11.253   33.726    4.375
  11.156   33.724    4.160
  11.056   33.723    3.945
  10.956   33.722    3.734
  10.857   33.721    3.519
  10.759   33.720    3.296
  10.663   33.719    3.079
  10.569   33.717    2.855
  10.478   33.716    2.630
  10.388   33.715    2.401
  10.298   33.714    2.170
  10.205   33.713    1.941
  10.108   33.712    1.717
  10.004   33.711    1.499
   9.891   33.709    1.290
   9.770   33.708    1.088
   9.640   33.706    0.893
   9.504   33.705    0.703
   9.360   33.703    0.518
   9.211   33.701    0.337
   9.056   33.699    0.162
   8.896   33.697   -0.007
   8.730   33.695   -0.171
   8.559   33.693   -0.329
   8.381   33.691   -0.479
   8.198   33.689   -0.624
   8.010   33.687   -0.762
   7.817   33.684   -0.895
   7.620   33.682   -1.023
   7.419   33.679   -1.145
   7.214   33.677   -1.261
   7.007   33.674   -1.372
   6.796   33.672   -1.477
   6.583   33.669   -1.577
   6.367   33.667   -1.672
   6.150   33.664   -1.764
   5.931   33.662   -1.852
   5.711   33.659   -1.937
   5.490   33.656   -2.019
   5.268   33.654   -2.095
   5.044   33.651   -2.166
   4.819   33.648   -2.229
   4.593   33.645   -2.287
   4.366   33.643   -2.338
   4.137   33.640   -2.383
   3.907   33.637   -2.424
   3.676   33.634   -2.463
   3.445   33.632   -2.502
   3.212   33.629   -2.541
   2.978   33.626   -2.580
   2.744   33.623   -2.619
   2.508   33.620   -2.657
   2.273   33.617   -2.693
   2.036   33.615   -2.725
   1.800   33.612   -2.751
   1.563   33.609   -2.770
   1.326   33.606   -2.783
   1.089   33.603   -2.789
   0.852   33.600   -2.788
   0.616   33.598   -2.781
   0.380   33.595   -2.767
   0.145   33.592   -2.750
  -0.090   33.589   -2.729
  -0.324   33.586   -2.703
  -0.557   33.583   -2.670
  -0.790   33.581   -2.632
  -1.022   33.578   -2.589
  -1.253   33.575   -2.541
  -1.482   33.572   -2.487
  -1.711   33.569   -2.427
  -1.938   33.567   -2.362
  -2.164   33.564   -2.293
  -2.388   33.561   -2.222
  -2.611   33.559   -2.148
  -2.833   33.556   -2.069
  -3.053   33.553   -1.987
  -3.270   33.551   -1.903
  -3.486   33.548   -1.817
  -3.700   33.546   -1.726
  -3.910   33.543   -1.629
  -4.116   33.541   -1.524
  -4.317   33.538   -1.410
  -4.513   33.536   -1.287
  -4.703   33.533   -1.155
  -4.888   33.531   -1.014
  -5.066   33.529   -0.864
  -5.239   33.527   -0.708
  -5.409   33.525   -0.549
  -5.575   33.523   -0.390
  -5.740   33.521   -0.230
  -5.904   33.519   -0.068
  -6.066   33.517    0.096
  -6.227   33.515    0.262
  -6.387   33.513    0.431
  -6.543   33.511    0.607
  -6.695   33.509    0.791
  -6.838   33.508    0.984
  -6.973   33.506    1.186
  -7.097   33.505    1.398
  -7.211   33.503    1.620
  -7.314   33.502    1.849
  -7.406   33.501    2.082
  -7.488   33.500    2.313
  -7.562   33.499    2.547
  -7.629   33.498    2.782
  -7.688   33.498    3.015
  -7.741   33.497    3.252
  -7.786   33.496    3.484
  -7.824   33.496    3.715
  -7.855   33.495    3.955
  -7.881   33.495    4.189
  -7.902   33.495    4.419
  -7.919   33.495    4.651
  -7.934   33.495    4.883
  -7.949   33.494    5.120
  -7.964   33.494    5.359
  -7.981   33.494    5.599
  -7.999   33.494    5.840
  -8.019   33.494    6.082
  -8.038   33.493    6.325
  -8.057   33.493    6.569
  -8.075   33.493    6.813
  -8.091   33.493    7.056
  -8.105   33.492    7.300
  -8.118   33.492    7.544
  -8.129   33.492    7.789
  -8.140   33.492    8.033
  -8.150   33.492    8.277
  -8.159   33.492    8.521
  -8.167   33.492    8.765
  -8.173   33.492    9.009
  -8.176   33.492    9.254
  -8.178   33.492    9.498
  -8.177   33.492    9.742
  -8.174   33.492    9.987
  -8.169   33.492   10.231
  -8.162   33.492   10.475
  -8.152   33.492   10.719
  -8.139   33.492   10.963
  -8.124   33.492   11.207
  -8.105   33.492   11.450
  -8.084   33.493   11.688
  -8.060   33.493   11.921
  -8.032   33.493   12.149
  -8.000   33.494   12.371
  -7.964   33.494   12.589
  -7.925   33.495   12.802
  -9.471   34.448   15.754
  -9.382   34.449   16.286
  -9.340   34.450   16.562
  -9.300   34.450   16.844
  -9.262   34.451   17.133
  -9.227   34.451   17.430
  -9.192   34.452   17.733
  -9.153   34.452   18.036
  -9.113   34.453   18.341
  -9.068   34.453   18.645
  -9.015   34.454   18.948
  -8.954   34.455   19.250
  -8.882   34.455   19.545
  -8.803   34.456   19.839
  -8.716   34.457   20.132
  -8.621   34.459   20.419
  -8.520   34.460   20.703
  -8.414   34.461   20.985
  -8.305   34.462   21.266
  -8.195   34.464   21.549
  -8.086   34.465   21.833
  -7.978   34.466   22.118
  -7.873   34.468   22.406
  -7.769   34.469   22.696
  -7.669   34.470   22.987
  -7.572   34.471   23.280
  -7.478   34.472   23.575
  -7.388   34.473   23.871
  -7.299   34.475   24.166
  -7.210   34.476   24.462
  -7.120   34.477   24.757
  -7.026   34.478   25.051
  -6.929   34.479   25.344
  -6.828   34.480   25.636
  -6.722   34.481   25.926
  -6.613   34.483   26.215
  -6.502   34.484   26.504
  -6.391   34.485   26.793
  -6.280   34.487   27.082
  -6.171   34.488   27.372
  -6.062   34.489   27.662
  -5.952   34.491   27.952
  -5.841   34.492   28.242
  -5.730   34.493   28.531
  -5.618   34.495   28.821
  -5.504   34.496   29.110
  -5.388   34.498   29.398
  -5.270   34.499   29.685
  -5.151   34.500   29.972
  -5.030   34.502   30.258
  -4.908   34.503   30.543
  -4.783   34.505   30.826
  -4.657   34.506   31.109
  -4.531   34.508   31.390
  -4.404   34.509   31.670
  -4.275   34.511   31.947
  -4.141   34.513   32.221
  -4.003   34.514   32.492
  -3.862   34.516   32.762
  -3.718   34.518   33.029
  -3.571   34.520   33.295
  -3.424   34.521   33.561
  -3.279   34.523   33.829
  -3.138   34.525   34.098
  -3.000   34.526   34.368
  -2.865   34.528   34.637
  -2.729   34.530   34.904
  -2.591   34.531   35.175
  -2.450   34.533   35.442
  -2.303   34.535   35.707
  -2.150   34.537   35.969
  -1.992   34.539   36.230
  -1.829   34.541   36.493
  -1.666   34.542   36.756
  -1.502   34.544   37.011
  -1.339   34.546   37.267
  -1.179   34.548   37.525
  -1.021   34.550   37.784
  -0.862   34.552   38.043
  -0.701   34.554   38.300
  -0.536   34.556   38.553
  -0.366   34.558   38.806
  -0.190   34.560   39.048
  -0.002   34.562   39.274
   0.196   34.565   39.480
   0.404   34.567   39.658
   0.616   34.570   39.802
   0.837   34.573   39.907
   1.068   34.575   39.973
   1.308   34.578   39.998
   1.556   34.581   39.990
   1.808   34.584   39.952
   2.054   34.587   39.896
   2.303   34.590   39.828
   2.551   34.593   39.753
   2.794   34.596   39.675
   3.031   34.599   39.594
   3.259   34.602   39.504
   3.479   34.604   39.399
   3.690   34.607   39.273
   3.894   34.609   39.123
   4.091   34.612   38.948
   4.282   34.614   38.748
   4.468   34.616   38.526
   4.651   34.618   38.285
   4.831   34.621   38.028
   5.006   34.623   37.757
   5.177   34.625   37.474
   5.342   34.627   37.181
   5.502   34.629   36.879
   5.657   34.631   36.568
   5.806   34.632   36.254
   5.951   34.634   35.941
   6.092   34.636   35.631
   6.230   34.637   35.326
   6.367   34.639   35.027
   6.502   34.641   34.736
   6.635   34.642   34.452
   6.767   34.644   34.173
   6.896   34.646   33.896
   7.024   34.647   33.621
   7.151   34.649   33.347
   7.275   34.650   33.073
   7.397   34.652   32.799
   7.517   34.653   32.524
   7.635   34.654   32.248
   7.751   34.656   31.972
   7.865   34.657   31.695
   7.977   34.659   31.416
   8.088   34.660   31.137
   8.198   34.661   30.857
   8.308   34.663   30.578
   8.418   34.664   30.300
   8.528   34.665   30.022
   8.637   34.666   29.743
   8.744   34.668   29.464
   8.850   34.669   29.183
   8.954   34.670   28.900
   9.055   34.671   28.614
   9.152   34.673   28.325
   9.247   34.674   28.033
   9.340   34.675   27.741
   9.431   34.676   27.449
   9.521   34.677   27.156
   9.608   34.678   26.862
   9.694   34.679   26.569
   9.778   34.680   26.275
   9.861   34.681   25.980
   9.943   34.682   25.684
  10.024   34.683   25.387
  10.106   34.684   25.089
  10.190   34.685   24.790
  10.276   34.686   24.492
  10.367   34.687   24.194
  10.460   34.688   23.896
  10.556   34.690   23.598
  10.654   34.691   23.299
  10.753   34.692   23.000
  10.853   34.693   22.699
  10.952   34.694   22.396
  11.049   34.696   22.091
  11.143   34.697   21.783
  11.235   34.698   21.472
  11.327   34.699   21.160
  11.418   34.700   20.845
  11.509   34.701   20.529
  11.601   34.702   20.211
  11.694   34.703   19.891
  11.790   34.704   19.570
  11.888   34.706   19.247
  11.986   34.707   18.919
  12.086   34.708   18.585
  12.185   34.709   18.243
  12.284   34.710   17.893
  12.382   34.712   17.536
  12.477   34.713   17.172
  12.568   34.714   16.805
  12.654   34.715   16.438
  12.735   34.716   16.076
  12.810   34.717   15.722
  12.877   34.718   15.379
  12.937   34.718   15.046
  12.989   34.719   14.721
  13.032   34.719   14.404
  13.066   34.720   14.094
  13.090   34.720   13.786
  13.106   34.720   13.479
  13.115   34.720   13.173
  13.121   34.720   12.867
  13.127   34.721   12.561
  13.139   34.721   12.256
  13.160   34.721   11.952
  13.191   34.721   11.648
  13.233   34.722   11.344
  13.284   34.722   11.042
  13.342   34.723   10.739
  13.402   34.724   10.436
  13.461   34.725   10.132
  13.515   34.725    9.828
  13.561   34.726    9.522
  13.599   34.726    9.215
  13.628   34.727    8.906
  13.647   34.727    8.597
  13.657   34.727    8.288
  13.658   34.727    7.978
  13.649   34.727    7.668
  13.633   34.727    7.359
  13.609   34.726    7.050
  13.581   34.726    6.741
  13.549   34.726    6.433
  13.513   34.725    6.126
  13.474   34.725    5.819
  13.431   34.724    5.513
  13.382   34.724    5.209
  13.325   34.723    4.907
  13.257   34.722    4.608
  13.178   34.721    4.312
  13.088   34.720    4.019
  12.987   34.719    3.729
  12.879   34.718    3.444
  12.764   34.716    3.155
  12.647   34.715    2.871
  12.529   34.713    2.590
  12.413   34.712    2.313
  12.299   34.711    2.033
  12.185   34.709    1.748
  12.072   34.708    1.468
  11.957   34.706    1.200
  11.839   34.705    0.937
  11.715   34.704    0.672
  11.583   34.702    0.407
  11.442   34.700    0.148
  11.291   34.698   -0.099
  11.130   34.696   -0.340
  10.958   34.694   -0.577
  10.777   34.692   -0.808
  10.586   34.690   -1.033
  10.387   34.688   -1.252
  10.180   34.685   -1.465
   9.965   34.682   -1.671
   9.742   34.680   -1.868
   9.512   34.677   -2.056
   9.274   34.674   -2.233
   9.029   34.671   -2.400
   8.777   34.668   -2.556
   8.519   34.665   -2.703
   8.254   34.662   -2.843
   7.984   34.659   -2.977
   7.710   34.655   -3.106
   7.431   34.652   -3.231
   7.150   34.649   -3.354
   6.865   34.645   -3.474
   6.578   34.642   -3.589
   6.289   34.638   -3.698
   5.998   34.635   -3.801
   5.705   34.631   -3.898
   5.410   34.628   -3.988
   5.112   34.624   -4.073
   4.813   34.620   -4.152
   4.512   34.617   -4.225
   4.210   34.613   -4.294
   3.906   34.609   -4.359
   3.600   34.606   -4.421
   3.293   34.602   -4.478
   2.985   34.598   -4.532
   2.677   34.595   -4.581
   2.368   34.591   -4.625
   2.059   34.587   -4.665
   1.754   34.584   -4.698
   1.440   34.580   -4.726
   1.129   34.576   -4.747
   0.821   34.572   -4.761
   0.515   34.569   -4.766
   0.199   34.565   -4.764
  -0.121   34.561   -4.753
  -0.436   34.557   -4.735
  -0.750   34.553   -4.708
  -1.062   34.550   -4.676
  -1.374   34.546   -4.638
  -1.684   34.542   -4.596
  -1.993   34.538   -4.552
  -2.299   34.535   -4.503
  -2.604   34.531   -4.449
  -2.907   34.527   -4.388
  -3.207   34.524   -4.318
  -3.505   34.520   -4.238
  -3.800   34.517   -4.147
  -4.091   34.513   -4.044
  -4.380   34.510   -3.931
  -4.665   34.506   -3.810
  -4.946   34.503   -3.682
  -5.222   34.500   -3.547
  -5.494   34.496   -3.406
  -5.760   34.493   -3.259
  -6.019   34.490   -3.104
  -6.271   34.487   -2.940
  -6.516   34.484   -2.767
  -6.752   34.481   -2.583
  -6.981   34.478   -2.389
  -7.202   34.476   -2.183
  -7.416   34.473   -1.969
  -7.623   34.471   -1.745
  -7.824   34.468   -1.514
  -8.018   34.466   -1.277
  -8.205   34.464   -1.032
  -8.386   34.461   -0.782
  -8.559   34.459   -0.526
  -8.724   34.457   -0.264
  -8.880   34.455    0.002
  -9.025   34.454    0.279
  -9.159   34.452    0.563
  -9.280   34.451    0.848
  -9.389   34.449    1.128
  -9.483   34.448    1.413
  -9.565   34.447    1.710
  -9.635   34.446    2.012
  -9.694   34.446    2.307
  -9.743   34.445    2.609
  -9.785   34.445    2.914
  -9.820   34.444    3.220
  -9.851   34.444    3.525
  -9.878   34.443    3.838
  -9.902   34.443    4.149
  -9.924   34.443    4.460
  -9.944   34.443    4.772
  -9.961   34.442    5.083
  -9.975   34.442    5.395
  -9.988   34.442    5.706
  -9.997   34.442    6.017
 -10.003   34.442    6.327
 -10.008   34.442    6.638
 -10.011   34.442    6.948
 -10.013   34.442    7.259
 -10.015   34.442    7.569
 -10.017   34.442    7.880
 -10.019   34.442    8.190
 -10.023   34.442    8.500
 -10.028   34.442    8.811
 -10.035   34.442    9.121
 -10.044   34.441    9.431
 -10.054   34.441    9.740
 -10.063   34.441   10.050
 -10.071   34.441   10.360
 -10.075   34.441   10.669
 -10.075   34.441   10.978
 -10.070   34.441   11.288
 -10.059   34.441   11.597
 -10.043   34.441   11.907
 -10.023   34.442   12.217
  -9.998   34.442   12.526
  -9.969   34.442   12.835
  -9.934   34.443   13.143
  -9.894   34.443   13.451
  -9.848   34.444   13.757
  -9.796   34.444   14.062
  -9.742   34.445   14.361
  -9.685   34.446   14.652
  -9.628   34.446   14.937
  -9.573   34.447   15.215
  -9.520   34.448   15.488
  -9.471   34.448   15.754
 -10.834   35.404   18.479
 -10.712   35.406   19.097
 -10.643   35.407   19.413
 -10.570   35.407   19.733
 -10.494   35.408   20.060
 -10.415   35.409   20.392
 -10.333   35.410   20.730
 -10.248   35.411   21.076
 -10.161   35.412   21.420
 -10.073   35.413   21.764
  -9.984   35.415   22.108
  -9.893   35.416   22.452
  -9.799   35.417   22.795
  -9.703   35.418   23.139
  -9.605   35.419   23.481
  -9.506   35.420   23.824
  -9.405   35.421   24.167
  -9.301   35.423   24.509
  -9.193   35.424   24.850
  -9.083   35.425   25.191
  -8.971   35.427   25.531
  -8.856   35.428   25.870
  -8.739   35.429   26.209
  -8.620   35.431   26.546
  -8.500   35.432   26.883
  -8.380   35.434   27.220
  -8.261   35.435   27.555
  -8.142   35.437   27.888
  -8.023   35.438   28.218
  -7.901   35.439   28.545
  -7.777   35.441   28.869
  -7.649   35.442   29.190
  -7.520   35.444   29.508
  -7.390   35.446   29.825
  -7.264   35.447   30.143
  -7.141   35.449   30.465
  -7.022   35.450   30.791
  -6.906   35.451   31.121
  -6.792   35.453   31.454
  -6.679   35.454   31.790
  -6.566   35.456   32.128
  -6.452   35.457   32.466
  -6.336   35.458   32.803
  -6.217   35.460   33.139
  -6.093   35.461   33.474
  -5.963   35.463   33.806
  -5.828   35.464   34.136
  -5.687   35.466   34.462
  -5.541   35.468   34.786
  -5.391   35.470   35.108
  -5.239   35.471   35.428
  -5.090   35.473   35.748
  -4.946   35.475   36.070
  -4.809   35.477   36.394
  -4.680   35.478   36.722
  -4.559   35.480   37.053
  -4.443   35.481   37.386
  -4.332   35.482   37.722
  -4.222   35.484   38.057
  -4.110   35.485   38.391
  -3.993   35.487   38.722
  -3.871   35.488   39.050
  -3.742   35.490   39.374
  -3.605   35.491   39.694
  -3.461   35.493   40.011
  -3.310   35.495   40.325
  -3.155   35.497   40.639
  -2.998   35.499   40.953
  -2.840   35.501   41.268
  -2.681   35.502   41.584
  -2.519   35.504   41.896
  -2.356   35.506   42.204
  -2.191   35.508   42.504
  -2.022   35.510   42.796
  -1.851   35.512   43.080
  -1.677   35.515   43.355
  -1.502   35.517   43.622
  -1.325   35.519   43.887
  -1.147   35.521   44.157
  -0.967   35.523   44.431
  -0.784   35.525   44.710
  -0.596   35.528   44.992
  -0.401   35.530   45.277
  -0.196   35.532   45.560
   0.019   35.535   45.831
   0.246   35.538   46.080
   0.488   35.541   46.295
   0.742   35.544   46.471
   1.009   35.547   46.599
   1.286   35.550   46.675
   1.570   35.554   46.694
   1.857   35.557   46.665
   2.154   35.561   46.594
   2.445   35.564   46.489
   2.730   35.568   46.356
   3.007   35.571   46.199
   3.271   35.574   46.023
   3.521   35.577   45.831
   3.762   35.580   45.622
   3.991   35.583   45.394
   4.204   35.585   45.146
   4.407   35.588   44.881
   4.601   35.590   44.600
   4.791   35.592   44.307
   4.977   35.595   44.005
   5.161   35.597   43.695
   5.343   35.599   43.380
   5.521   35.601   43.061
   5.697   35.603   42.739
   5.869   35.606   42.413
   6.036   35.608   42.086
   6.199   35.610   41.758
   6.358   35.611   41.430
   6.511   35.613   41.101
   6.659   35.615   40.773
   6.803   35.617   40.445
   6.945   35.619   40.118
   7.084   35.620   39.791
   7.219   35.622   39.462
   7.348   35.623   39.131
   7.475   35.625   38.800
   7.601   35.626   38.468
   7.726   35.628   38.136
   7.849   35.629   37.801
   7.970   35.631   37.465
   8.088   35.632   37.128
   8.205   35.634   36.790
   8.319   35.635   36.450
   8.429   35.636   36.109
   8.536   35.638   35.766
   8.640   35.639   35.423
   8.743   35.640   35.079
   8.848   35.641   34.736
   8.954   35.643   34.394
   9.062   35.644   34.052
   9.173   35.645   33.711
   9.285   35.647   33.370
   9.397   35.648   33.031
   9.507   35.649   32.692
   9.613   35.651   32.353
   9.711   35.652   32.012
   9.801   35.653   31.671
   9.879   35.654   31.327
   9.944   35.655   30.980
  10.001   35.655   30.631
  10.051   35.656   30.280
  10.099   35.656   29.927
  10.142   35.657   29.573
  10.188   35.658   29.218
  10.242   35.658   28.865
  10.309   35.659   28.513
  10.385   35.660   28.163
  10.470   35.661   27.815
  10.564   35.662   27.468
  10.667   35.663   27.124
  10.775   35.665   26.780
  10.886   35.666   26.437
  10.996   35.667   26.094
  11.103   35.669   25.751
  11.208   35.670   25.407
  11.311   35.671   25.062
  11.412   35.672   24.715
  11.513   35.674   24.368
  11.614   35.675   24.020
  11.716   35.676   23.672
  11.819   35.677   23.323
  11.924   35.679   22.975
  12.030   35.680   22.626
  12.138   35.681   22.278
  12.247   35.682   21.929
  12.356   35.684   21.579
  12.464   35.685   21.227
  12.572   35.686   20.874
  12.678   35.688   20.519
  12.781   35.689   20.162
  12.882   35.690   19.804
  12.979   35.691   19.443
  13.072   35.692   19.082
  13.161   35.693   18.719
  13.246   35.694   18.357
  13.327   35.695   17.994
  13.405   35.696   17.631
  13.481   35.697   17.268
  13.554   35.698   16.906
  13.627   35.699   16.545
  13.701   35.700   16.184
  13.775   35.701   15.823
  13.850   35.702   15.463
  13.923   35.702   15.103
  13.995   35.703   14.742
  14.063   35.704   14.380
  14.129   35.705   14.018
  14.191   35.706   13.655
  14.250   35.706   13.291
  14.307   35.707   12.927
  14.364   35.708   12.562
  14.421   35.708   12.197
  14.479   35.709   11.832
  14.537   35.710   11.467
  14.594   35.711   11.102
  14.650   35.711   10.738
  14.701   35.712   10.373
  14.747   35.712   10.007
  14.785   35.713    9.641
  14.815   35.713    9.274
  14.837   35.713    8.906
  14.854   35.714    8.538
  14.866   35.714    8.170
  14.877   35.714    7.801
  14.885   35.714    7.433
  14.889   35.714    7.065
  14.888   35.714    6.697
  14.879   35.714    6.331
  14.859   35.714    5.966
  14.826   35.713    5.602
  14.781   35.713    5.241
  14.724   35.712    4.883
  14.657   35.711    4.527
  14.584   35.710    4.175
  14.508   35.710    3.826
  14.430   35.709    3.480
  14.352   35.708    3.140
  14.273   35.707    2.808
  14.192   35.706    2.478
  14.109   35.705    2.149
  14.022   35.704    1.821
  13.929   35.703    1.494
  13.829   35.701    1.168
  13.720   35.700    0.839
  13.601   35.699    0.511
  13.470   35.697    0.178
  13.328   35.695   -0.135
  13.172   35.693   -0.448
  13.002   35.691   -0.756
  12.820   35.689   -1.058
  12.625   35.687   -1.355
  12.418   35.684   -1.647
  12.200   35.682   -1.932
  11.970   35.679   -2.209
  11.728   35.676   -2.478
  11.474   35.673   -2.743
  11.208   35.670   -2.997
  10.929   35.666   -3.236
  10.639   35.663   -3.449
  10.336   35.659   -3.646
  10.024   35.656   -3.831
   9.705   35.652   -4.006
   9.379   35.648   -4.171
   9.047   35.644   -4.327
   8.710   35.640   -4.475
   8.371   35.636   -4.619
   8.030   35.631   -4.757
   7.686   35.627   -4.889
   7.338   35.623   -5.014
   6.987   35.619   -5.134
   6.634   35.615   -5.251
   6.278   35.610   -5.364
   5.918   35.606   -5.474
   5.555   35.602   -5.581
   5.189   35.597   -5.686
   4.820   35.593   -5.787
   4.449   35.588   -5.882
   4.075   35.584   -5.970
   3.694   35.579   -6.051
   3.319   35.575   -6.125
   2.945   35.570   -6.190
   2.566   35.566   -6.245
   2.186   35.561   -6.292
   1.804   35.557   -6.332
   1.424   35.552   -6.366
   1.041   35.547   -6.390
   0.657   35.543   -6.405
   0.272   35.538   -6.412
  -0.113   35.533   -6.410
  -0.491   35.529   -6.400
  -0.877   35.524   -6.379
  -1.270   35.519   -6.348
  -1.656   35.515   -6.309
  -2.040   35.510   -6.262
  -2.423   35.506   -6.207
  -2.804   35.501   -6.146
  -3.183   35.496   -6.077
  -3.559   35.492   -6.001
  -3.931   35.487   -5.916
  -4.301   35.483   -5.823
  -4.666   35.479   -5.720
  -5.028   35.474   -5.606
  -5.386   35.470   -5.480
  -5.738   35.466   -5.343
  -6.086   35.461   -5.194
  -6.428   35.457   -5.036
  -6.762   35.453   -4.867
  -7.089   35.449   -4.689
  -7.408   35.446   -4.502
  -7.717   35.442   -4.304
  -8.014   35.438   -4.095
  -8.300   35.435   -3.874
  -8.572   35.432   -3.639
  -8.832   35.428   -3.390
  -9.078   35.425   -3.119
  -9.311   35.423   -2.835
  -9.531   35.420   -2.541
  -9.740   35.417   -2.240
  -9.937   35.415   -1.937
 -10.125   35.413   -1.628
 -10.302   35.411   -1.314
 -10.469   35.409   -1.002
 -10.625   35.407   -0.670
 -10.771   35.405   -0.331
 -10.904   35.403    0.004
 -11.026   35.402    0.341
 -11.135   35.401    0.683
 -11.232   35.400    1.044
 -11.317   35.398    1.407
 -11.391   35.398    1.756
 -11.456   35.397    2.103
 -11.512   35.396    2.450
 -11.560   35.396    2.797
 -11.601   35.395    3.145
 -11.635   35.395    3.493
 -11.665   35.394    3.844
 -11.689   35.394    4.203
 -11.708   35.394    4.565
 -11.726   35.394    4.931
 -11.741   35.393    5.299
 -11.756   35.393    5.669
 -11.770   35.393    6.041
 -11.784   35.393    6.413
 -11.797   35.393    6.786
 -11.808   35.393    7.159
 -11.815   35.392    7.531
 -11.816   35.392    7.904
 -11.811   35.393    8.276
 -11.799   35.393    8.648
 -11.782   35.393    9.020
 -11.759   35.393    9.393
 -11.734   35.393    9.765
 -11.708   35.394   10.137
 -11.682   35.394   10.509
 -11.658   35.394   10.881
 -11.634   35.395   11.252
 -11.612   35.395   11.624
 -11.590   35.395   11.996
 -11.567   35.395   12.368
 -11.542   35.396   12.739
 -11.516   35.396   13.111
 -11.486   35.396   13.482
 -11.454   35.397   13.852
 -11.419   35.397   14.223
 -11.380   35.398   14.593
 -11.339   35.398   14.963
 -11.294   35.399   15.332
 -11.247   35.399   15.702
 -11.197   35.400   16.071
 -11.147   35.401   16.440
 -11.096   35.401   16.801
 -11.046   35.402   17.155
 -10.995   35.402   17.500
 -10.943   35.403   17.836
 -10.890   35.404   18.162
 -10.834   35.404   18.479
 -11.082   36.375   23.036
 -10.920   36.377   23.761
 -10.838   36.378   24.128
 -10.757   36.379   24.501
 -10.675   36.380   24.879
 -10.591   36.381   25.263
 -10.503   36.382   25.652
 -10.411   36.383   26.048
 -10.314   36.384   26.441
 -10.213   36.385   26.833
 -10.108   36.386   27.223
 -10.001   36.388   27.613
  -9.894   36.389   28.002
  -9.788   36.390   28.393
  -9.682   36.392   28.784
  -9.575   36.393   29.175
  -9.464   36.394   29.567
  -9.349   36.396   29.957
  -9.229   36.397   30.344
  -9.102   36.399   30.727
  -8.969   36.400   31.106
  -8.832   36.402   31.481
  -8.691   36.404   31.853
  -8.548   36.405   32.223
  -8.407   36.407   32.593
  -8.272   36.409   32.966
  -8.144   36.410   33.344
  -8.024   36.412   33.725
  -7.910   36.413   34.109
  -7.801   36.414   34.496
  -7.694   36.416   34.886
  -7.587   36.417   35.276
  -7.479   36.418   35.667
  -7.369   36.419   36.056
  -7.262   36.421   36.445
  -7.153   36.422   36.833
  -7.043   36.423   37.220
  -6.930   36.425   37.606
  -6.814   36.426   37.990
  -6.694   36.428   38.372
  -6.571   36.429   38.753
  -6.446   36.431   39.132
  -6.318   36.432   39.511
  -6.187   36.434   39.888
  -6.054   36.435   40.266
  -5.918   36.437   40.642
  -5.780   36.439   41.018
  -5.640   36.440   41.392
  -5.498   36.442   41.765
  -5.355   36.444   42.137
  -5.213   36.445   42.509
  -5.073   36.447   42.880
  -4.938   36.449   43.254
  -4.808   36.450   43.630
  -4.684   36.452   44.009
  -4.566   36.453   44.391
  -4.453   36.455   44.776
  -4.344   36.456   45.164
  -4.237   36.457   45.554
  -4.132   36.458   45.946
  -4.027   36.460   46.338
  -3.923   36.461   46.729
  -3.813   36.462   47.120
  -3.697   36.464   47.509
  -3.576   36.465   47.893
  -3.453   36.467   48.273
  -3.323   36.468   48.647
  -3.186   36.470   49.014
  -3.041   36.472   49.373
  -2.888   36.473   49.727
  -2.728   36.475   50.077
  -2.561   36.477   50.423
  -2.389   36.479   50.768
  -2.214   36.481   51.112
  -2.038   36.484   51.457
  -1.859   36.486   51.805
  -1.680   36.488   52.155
  -1.501   36.490   52.506
  -1.323   36.492   52.860
  -1.148   36.494   53.215
  -0.973   36.496   53.570
  -0.795   36.499   53.921
  -0.610   36.501   54.260
  -0.415   36.503   54.576
  -0.205   36.506   54.859
   0.025   36.509   55.096
   0.276   36.512   55.278
   0.550   36.515   55.398
   0.845   36.519   55.453
   1.157   36.522   55.449
   1.483   36.526   55.393
   1.819   36.530   55.295
   2.159   36.534   55.164
   2.497   36.538   55.007
   2.827   36.542   54.826
   3.146   36.546   54.620
   3.448   36.550   54.389
   3.731   36.553   54.134
   3.993   36.556   53.854
   4.229   36.559   53.549
   4.447   36.562   53.222
   4.647   36.564   52.879
   4.832   36.567   52.525
   5.006   36.569   52.165
   5.164   36.571   51.802
   5.321   36.573   51.438
   5.482   36.575   51.074
   5.641   36.577   50.711
   5.799   36.578   50.350
   5.954   36.580   49.988
   6.106   36.582   49.625
   6.254   36.584   49.259
   6.397   36.586   48.890
   6.535   36.587   48.518
   6.667   36.589   48.143
   6.795   36.590   47.765
   6.920   36.592   47.386
   7.043   36.593   47.005
   7.165   36.595   46.624
   7.283   36.596   46.243
   7.400   36.598   45.861
   7.516   36.599   45.479
   7.634   36.600   45.097
   7.752   36.602   44.715
   7.872   36.603   44.333
   7.991   36.605   43.951
   8.111   36.606   43.568
   8.231   36.608   43.184
   8.351   36.609   42.800
   8.469   36.610   42.416
   8.586   36.612   42.032
   8.702   36.613   41.648
   8.817   36.615   41.263
   8.934   36.616   40.879
   9.051   36.618   40.493
   9.166   36.619   40.108
   9.279   36.620   39.721
   9.387   36.622   39.334
   9.487   36.623   38.946
   9.580   36.624   38.557
   9.663   36.625   38.167
   9.738   36.626   37.777
   9.804   36.626   37.385
   9.863   36.627   36.992
   9.923   36.628   36.598
   9.986   36.629   36.203
  10.054   36.629   35.809
  10.125   36.630   35.416
  10.208   36.631   35.024
  10.294   36.632   34.633
  10.395   36.634   34.244
  10.495   36.635   33.856
  10.596   36.636   33.468
  10.698   36.637   33.080
  10.799   36.638   32.692
  10.896   36.640   32.303
  10.984   36.641   31.913
  11.068   36.642   31.522
  11.155   36.643   31.130
  11.238   36.644   30.736
  11.322   36.645   30.342
  11.410   36.646   29.948
  11.501   36.647   29.554
  11.596   36.648   29.159
  11.695   36.649   28.766
  11.797   36.651   28.374
  11.902   36.652   27.983
  12.010   36.653   27.595
  12.119   36.654   27.207
  12.230   36.656   26.821
  12.341   36.657   26.436
  12.451   36.658   26.049
  12.561   36.660   25.662
  12.669   36.661   25.273
  12.775   36.662   24.883
  12.880   36.664   24.492
  12.984   36.665   24.099
  13.085   36.666   23.704
  13.184   36.667   23.306
  13.282   36.668   22.905
  13.380   36.670   22.500
  13.484   36.671   22.091
  13.587   36.672   21.677
  13.688   36.673   21.260
  13.792   36.675   20.838
  13.903   36.676   20.414
  14.016   36.677   19.987
  14.130   36.679   19.559
  14.243   36.680   19.129
  14.353   36.681   18.699
  14.456   36.682   18.267
  14.554   36.684   17.834
  14.647   36.685   17.401
  14.735   36.686   16.967
  14.820   36.687   16.532
  14.901   36.688   16.097
  14.980   36.689   15.662
  15.059   36.690   15.227
  15.138   36.691   14.792
  15.216   36.692   14.356
  15.293   36.693   13.921
  15.367   36.693   13.485
  15.439   36.694   13.049
  15.507   36.695   12.612
  15.570   36.696   12.174
  15.627   36.697   11.736
  15.679   36.697   11.297
  15.726   36.698   10.857
  15.768   36.698   10.417
  15.805   36.699    9.977
  15.838   36.699    9.536
  15.866   36.699    9.096
  15.890   36.700    8.655
  15.908   36.700    8.215
  15.921   36.700    7.774
  15.929   36.700    7.334
  15.930   36.700    6.893
  15.925   36.700    6.453
  15.913   36.700    6.013
  15.893   36.700    5.574
  15.867   36.699    5.135
  15.833   36.699    4.696
  15.792   36.699    4.258
  15.744   36.698    3.821
  15.690   36.697    3.385
  15.629   36.697    2.950
  15.559   36.696    2.517
  15.479   36.695    2.086
  15.388   36.694    1.659
  15.283   36.692    1.236
  15.164   36.691    0.817
  15.028   36.689    0.406
  14.874   36.688    0.001
  14.703   36.685   -0.395
  14.515   36.683   -0.782
  14.310   36.681   -1.152
  14.090   36.678   -1.532
  13.855   36.675   -1.893
  13.605   36.672   -2.242
  13.343   36.669   -2.573
  13.067   36.666   -2.913
  12.777   36.662   -3.229
  12.474   36.659   -3.521
  12.158   36.655   -3.815
  11.828   36.651   -4.091
  11.484   36.647   -4.349
  11.127   36.642   -4.592
  10.758   36.638   -4.821
  10.379   36.633   -5.037
   9.991   36.629   -5.242
   9.595   36.624   -5.435
   9.193   36.619   -5.619
   8.786   36.614   -5.792
   8.375   36.609   -5.956
   7.960   36.604   -6.112
   7.541   36.599   -6.259
   7.119   36.594   -6.399
   6.693   36.589   -6.531
   6.265   36.584   -6.656
   5.834   36.579   -6.773
   5.401   36.573   -6.883
   4.965   36.568   -6.984
   4.519   36.563   -7.079
   4.087   36.558   -7.166
   3.650   36.552   -7.247
   3.209   36.547   -7.320
   2.766   36.542   -7.386
   2.322   36.536   -7.444
   1.877   36.531   -7.495
   1.429   36.526   -7.535
   0.980   36.520   -7.564
   0.530   36.515   -7.580
   0.078   36.509   -7.585
  -0.375   36.504   -7.581
  -0.828   36.498   -7.565
  -1.280   36.493   -7.539
  -1.734   36.487   -7.503
  -2.187   36.482   -7.457
  -2.638   36.477   -7.401
  -3.087   36.471   -7.335
  -3.533   36.466   -7.258
  -3.977   36.460   -7.170
  -4.417   36.455   -7.069
  -4.853   36.450   -6.958
  -5.286   36.445   -6.836
  -5.714   36.440   -6.704
  -6.139   36.434   -6.561
  -6.558   36.429   -6.407
  -6.972   36.424   -6.241
  -7.380   36.419   -6.062
  -7.781   36.415   -5.871
  -8.174   36.410   -5.662
  -8.557   36.405   -5.436
  -8.928   36.401   -5.194
  -9.287   36.397   -4.935
  -9.630   36.392   -4.659
  -9.957   36.388   -4.359
 -10.266   36.385   -4.035
 -10.555   36.381   -3.723
 -10.826   36.378   -3.399
 -11.079   36.375   -3.039
 -11.315   36.372   -2.679
 -11.536   36.369   -2.323
 -11.746   36.367   -1.956
 -11.947   36.364   -1.560
 -12.139   36.362   -1.172
 -12.322   36.360   -0.790
 -12.496   36.358   -0.401
 -12.658   36.356   -0.001
 -12.805   36.354    0.413
 -12.936   36.353    0.835
 -13.049   36.351    1.265
 -13.143   36.350    1.702
 -13.219   36.349    2.145
 -13.280   36.348    2.593
 -13.327   36.348    3.043
 -13.363   36.347    3.494
 -13.390   36.347    3.947
 -13.411   36.347    4.401
 -13.426   36.347    4.855
 -13.436   36.347    5.309
 -13.442   36.346    5.763
 -13.445   36.346    6.217
 -13.444   36.346    6.671
 -13.438   36.347    7.125
 -13.429   36.347    7.579
 -13.415   36.347    8.032
 -13.398   36.347    8.486
 -13.377   36.347    8.939
 -13.352   36.348    9.392
 -13.323   36.348    9.845
 -13.291   36.348   10.298
 -13.257   36.349   10.750
 -13.220   36.349   11.202
 -13.182   36.350   11.655
 -13.142   36.350   12.107
 -13.102   36.351   12.559
 -13.060   36.351   13.011
 -13.016   36.352   13.462
 -12.970   36.352   13.914
 -12.921   36.353   14.364
 -12.866   36.353   14.815
 -12.804   36.354   15.264
 -12.735   36.355   15.712
 -12.659   36.356   16.159
 -12.577   36.357   16.605
 -12.490   36.358   17.050
 -12.398   36.359   17.495
 -12.302   36.360   17.939
 -12.205   36.361   18.383
 -12.106   36.363   18.826
 -12.006   36.364   19.270
 -11.904   36.365   19.713
 -11.801   36.366   20.157
 -11.696   36.368   20.600
 -11.593   36.369   21.035
 -11.490   36.370   21.459
 -11.387   36.371   21.872
 -11.287   36.372   22.274
 -11.189   36.374   22.662
 -11.082   36.375   23.036
 -11.156   37.348   30.171
 -10.955   37.350   31.018
 -10.846   37.352   31.438
 -10.738   37.353   31.859
 -10.633   37.354   32.284
 -10.534   37.355   32.714
 -10.432   37.357   33.150
 -10.328   37.358   33.595
 -10.221   37.359   34.040
 -10.111   37.360   34.484
  -9.997   37.362   34.926
  -9.881   37.363   35.369
  -9.761   37.365   35.810
  -9.639   37.366   36.252
  -9.515   37.368   36.694
  -9.388   37.369   37.135
  -9.263   37.371   37.575
  -9.134   37.372   38.015
  -9.002   37.374   38.453
  -8.865   37.375   38.890
  -8.722   37.377   39.325
  -8.575   37.379   39.759
  -8.425   37.381   40.190
  -8.273   37.383   40.621
  -8.119   37.384   41.051
  -7.966   37.386   41.480
  -7.817   37.388   41.911
  -7.675   37.390   42.343
  -7.539   37.391   42.777
  -7.408   37.393   43.212
  -7.282   37.395   43.650
  -7.159   37.396   44.089
  -7.039   37.397   44.530
  -6.921   37.399   44.972
  -6.803   37.400   45.414
  -6.685   37.402   45.855
  -6.568   37.403   46.293
  -6.454   37.404   46.729
  -6.341   37.406   47.162
  -6.226   37.407   47.591
  -6.108   37.409   48.017
  -5.987   37.410   48.440
  -5.869   37.412   48.862
  -5.750   37.413   49.285
  -5.629   37.415   49.709
  -5.509   37.416   50.137
  -5.391   37.418   50.567
  -5.271   37.419   51.001
  -5.148   37.420   51.437
  -5.024   37.422   51.875
  -4.900   37.423   52.315
  -4.776   37.425   52.756
  -4.654   37.426   53.197
  -4.534   37.428   53.640
  -4.419   37.429   54.083
  -4.309   37.430   54.528
  -4.208   37.432   54.974
  -4.114   37.433   55.422
  -4.029   37.434   55.871
  -3.951   37.435   56.319
  -3.871   37.436   56.768
  -3.785   37.437   57.216
  -3.694   37.438   57.663
  -3.596   37.439   58.109
  -3.490   37.440   58.552
  -3.376   37.442   58.993
  -3.253   37.443   59.431
  -3.117   37.445   59.866
  -2.969   37.447   60.298
  -2.807   37.448   60.727
  -2.633   37.451   61.155
  -2.448   37.453   61.583
  -2.256   37.455   62.014
  -2.063   37.458   62.449
  -1.873   37.460   62.888
  -1.690   37.462   63.333
  -1.514   37.464   63.781
  -1.346   37.466   64.230
  -1.184   37.468   64.673
  -1.030   37.470   65.106
  -0.879   37.472   65.521
  -0.728   37.473   65.911
  -0.573   37.475   66.269
  -0.390   37.477   66.595
  -0.204   37.480   66.887
  -0.001   37.482   67.143
   0.231   37.485   67.358
   0.492   37.488   67.533
   0.780   37.491   67.668
   1.098   37.495   67.766
   1.441   37.499   67.817
   1.801   37.504   67.814
   2.174   37.508   67.757
   2.552   37.513   67.647
   2.918   37.517   67.487
   3.268   37.521   67.271
   3.593   37.525   66.998
   3.890   37.529   66.676
   4.152   37.532   66.314
   4.372   37.535   65.920
   4.556   37.537   65.499
   4.727   37.539   65.057
   4.857   37.540   64.602
   4.968   37.542   64.142
   5.071   37.543   63.681
   5.175   37.544   63.220
   5.277   37.545   62.759
   5.379   37.546   62.300
   5.481   37.547   61.842
   5.589   37.549   61.386
   5.701   37.550   60.933
   5.816   37.551   60.481
   5.933   37.553   60.031
   6.049   37.554   59.582
   6.165   37.555   59.133
   6.279   37.557   58.683
   6.388   37.558   58.231
   6.490   37.559   57.778
   6.587   37.560   57.323
   6.686   37.562   56.869
   6.787   37.563   56.415
   6.890   37.564   55.962
   6.997   37.565   55.510
   7.106   37.567   55.062
   7.217   37.568   54.616
   7.325   37.569   54.171
   7.430   37.571   53.726
   7.532   37.572   53.282
   7.629   37.573   52.837
   7.722   37.574   52.392
   7.809   37.575   51.947
   7.891   37.577   51.501
   7.970   37.578   51.055
   8.045   37.579   50.609
   8.117   37.580   50.164
   8.192   37.580   49.719
   8.282   37.582   49.278
   8.382   37.583   48.840
   8.498   37.584   48.407
   8.631   37.586   47.977
   8.781   37.588   47.551
   8.946   37.590   47.129
   9.120   37.592   46.710
   9.297   37.594   46.289
   9.471   37.596   45.865
   9.638   37.598   45.438
   9.800   37.600   45.008
