 -39.330   79.376  -10.408
 -39.595   79.397   -9.464
 -39.817   79.414   -8.505
 -39.978   79.426   -7.534
 -40.088   79.435   -6.554
 -40.149   79.440   -5.568
 -40.157   79.441   -4.577
 -40.142   79.439   -3.584
 -40.085   79.435   -2.589
 -39.999   79.428   -1.594
 -39.892   79.420   -0.600
 -39.767   79.410    0.393
 -39.630   79.399    1.388
 -39.486   79.388    2.384
 -39.339   79.376    3.373
 -39.192   79.365    4.359
 -39.049   79.353    5.350
 -38.913   79.343    6.341
 -38.785   79.333    7.333
 -38.667   79.323    8.326
 -38.559   79.315    9.320
 -38.459   79.307   10.314
 -38.369   79.300   11.310
 -38.285   79.293   12.306
 -38.207   79.287   13.302
 -38.134   79.281   14.300
 -38.066   79.276   15.297
 -38.002   79.271   16.296
 -37.944   79.267   17.295
 -37.891   79.262   18.295
 -37.844   79.259   19.295
 -37.802   79.255   20.295
 -37.764   79.252   21.296
 -37.729   79.250   22.297
 -37.696   79.247   23.298
 -37.666   79.245   24.299
 -37.637   79.242   25.300
 -37.610   79.240   26.302
 -37.585   79.238   27.303
 -37.562   79.236   28.305
 -37.540   79.235   29.307
 -37.521   79.233   30.310
 -37.503   79.232   31.313
 -37.486   79.231   32.319
 -37.470   79.229   33.305
 -37.456   79.228   34.276
 -37.445   79.227   35.235
 -37.436   79.227   36.185
 -37.434   79.226   37.129
 -37.435   79.226   38.070
 -38.141   80.262   38.388
 -38.182   80.266   40.332
 -38.212   80.268   41.368
 -38.248   80.271   42.444
 -38.286   80.274   43.556
 -38.325   80.277   44.700
 -38.361   80.280   45.873
 -38.389   80.282   47.072
 -38.406   80.283   48.273
 -38.408   80.283   49.474
 -38.395   80.282   50.675
 -38.362   80.280   51.876
 -38.312   80.276   53.077
 -38.243   80.270   54.278
 -38.159   80.264   55.478
 -38.059   80.256   56.677
 -37.945   80.247   57.876
 -37.819   80.237   59.074
 -37.681   80.226   60.271
 -37.532   80.215   61.467
 -37.373   80.202   62.662
 -37.204   80.189   63.856
 -37.030   80.175   65.051
 -36.852   80.161   66.245
 -36.672   80.147   67.440
 -36.491   80.133   68.634
 -36.313   80.119   69.827
 -35.840   80.081   70.841
 -35.368   80.044   70.841
 -34.896   80.007   70.841
 -34.424   79.970   70.841
 -33.954   79.933   70.841
 -33.485   79.896   70.841
 -33.016   79.859   70.841
 -32.547   79.822   70.841
 -32.078   79.784   70.841
 -31.609   79.747   70.841
 -31.140   79.710   70.841
 -30.670   79.673   70.841
 -30.201   79.636   70.841
 -29.732   79.599   70.841
 -29.263   79.562   70.841
 -28.794   79.525   70.841
 -28.325   79.487   70.841
 -27.856   79.450   70.841
 -27.387   79.413   70.841
 -26.918   79.376   70.841
 -26.449   79.339   70.841
 -25.980   79.302   70.841
 -25.511   79.265   70.841
 -25.042   79.228   70.841
 -24.569   79.190   70.841
 -24.090   79.153   70.841
 -23.612   79.116   70.841
 -23.134   79.079   70.841
 -22.655   79.042   70.841
 -22.177   79.005   70.841
 -21.698   78.968   70.841
 -21.220   78.931   70.841
 -20.742   78.893   70.841
 -20.263   78.856   70.841
 -19.786   78.819   70.841
 -19.314   78.782   70.841
 -18.842   78.745   70.841
 -18.370   78.708   70.841
 -17.897   78.671   70.841
 -17.425   78.634   70.841
 -16.953   78.596   70.841
 -16.481   78.559   70.841
 -16.009   78.522   70.841
 -15.536   78.485   70.841
 -15.064   78.448   70.841
 -14.592   78.411   70.841
 -14.120   78.374   70.841
 -13.648   78.337   70.841
 -13.176   78.299   70.841
 -12.703   78.262   70.841
 -12.231   78.225   70.841
 -11.759   78.188   70.841
 -11.287   78.151   70.841
 -10.815   78.114   70.841
 -10.342   78.077   70.841
  -9.870   78.040   70.841
  -9.398   78.002   70.841
  -8.926   77.965   70.841
  -8.454   77.928   70.841
  -7.982   77.891   70.841
  -7.509   77.854   70.841
  -7.037   77.817   70.841
  -6.565   77.780   70.841
  -6.093   77.743   70.841
  -5.621   77.705   70.841
  -5.148   77.668   70.841
  -4.676   77.631   70.841
  -4.204   77.594   70.841
  -3.732   77.557   70.841
  -3.257   77.520   70.841
  -2.787   77.483   70.841
  -2.315   77.446   70.841
  -1.843   77.408   70.841
  -1.371   77.371   70.841
  -0.899   77.334   70.841
  -0.427   77.297   70.841
   0.046   77.260   70.841
   0.518   77.223   70.841
   0.990   77.186   70.841
   1.462   77.149   70.841
   1.934   77.111   70.841
   2.407   77.074   70.841
   2.879   77.037   70.841
   3.351   77.000   70.841
   3.823   76.963   70.841
   4.295   76.926   70.841
   4.767   76.889   70.841
   5.240   76.852   70.841
   5.712   76.814   70.841
   6.184   76.777   70.841
   6.656   76.740   70.841
   7.128   76.703   70.841
   7.601   76.666   70.841
   8.073   76.629   70.841
   8.545   76.592   70.841
   9.017   76.555   70.841
   9.489   76.517   70.841
   9.961   76.480   70.841
  10.434   76.443   70.841
  10.906   76.406   70.841
  11.378   76.369   70.841
  11.850   76.332   70.841
  12.322   76.295   70.841
  12.796   76.257   70.841
  13.275   76.220   70.841
  13.753   76.183   70.841
  14.232   76.146   70.841
  14.710   76.109   70.841
  15.188   76.072   70.841
  15.667   76.035   70.841
  16.145   75.998   70.841
  16.624   75.960   70.841
  17.102   75.923   70.841
  17.581   75.886   70.841
  18.058   75.849   70.841
  18.532   75.812   70.841
  19.006   75.775   70.841
  19.479   75.738   70.841
  19.948   75.701   70.841
  20.415   75.663   70.841
  20.873   75.626   70.841
  21.342   75.589   70.841
  21.766   75.552   70.841
  22.234   75.515   70.841
  22.231   75.516   69.074
  22.217   75.517   67.945
  22.199   75.518   66.816
  22.178   75.520   65.689
  22.156   75.521   64.563
  22.133   75.523   63.438
  22.106   75.525   62.317
  22.076   75.528   61.197
  22.047   75.530   60.082
  22.018   75.532   58.971
  21.990   75.534   57.864
  21.965   75.536   56.761
  21.942   75.538   55.662
  21.927   75.539   54.566
  21.919   75.540   53.472
  21.915   75.540   52.380
  21.915   75.540   51.287
  21.917   75.540   50.192
  21.925   75.540   49.095
  21.940   75.538   47.997
  21.960   75.537   46.899
  21.983   75.535   45.801
  22.007   75.533   44.704
  22.033   75.531   43.610
  22.067   75.528   42.525
  22.109   75.525   41.455
  22.159   75.521   40.402
  22.219   75.516   39.369
  22.295   75.511   38.358
  22.390   75.503   37.370
  22.501   75.494   36.406
  22.620   75.485   35.461
  22.743   75.475   34.526
  22.867   75.466   33.598
  22.992   75.456   32.674
  23.116   75.446   31.751
  23.237   75.436   30.827
  23.356   75.427   29.900
  23.480   75.417   28.971
  23.609   75.407   28.041
  23.744   75.397   27.112
  23.884   75.386   26.183
  24.028   75.374   25.254
  24.177   75.363   24.325
  24.329   75.351   23.397
  24.485   75.338   22.469
  24.643   75.326   21.543
  24.804   75.313   20.617
  24.966   75.301   19.692
  25.128   75.288   18.768
  25.287   75.275   17.845
  25.445   75.263   16.922
  25.600   75.251   16.000
  25.753   75.239   15.078
  25.905   75.227   14.157
  26.059   75.215   13.237
  26.217   75.202   12.319
  26.385   75.189   11.403
  26.564   75.175   10.490
  26.756   75.160    9.580
  26.960   75.144    8.673
  27.175   75.127    7.768
  27.400   75.109    6.866
  27.631   75.091    5.963
  27.862   75.073    5.061
  28.088   75.055    4.157
  28.306   75.038    3.250
  28.511   75.022    2.340
  28.700   75.007    1.427
  28.869   74.994    0.511
  29.018   74.982   -0.409
  29.146   74.972   -1.332
  29.251   74.964   -2.257
  29.330   74.957   -3.185
  29.381   74.953   -4.114
  29.395   74.952   -5.043
  29.389   74.953   -5.969
  29.337   74.957   -6.891
  29.241   74.964   -7.807
  29.095   74.976   -8.709
  28.861   74.991   -9.599
  28.622   75.011  -10.469
  28.333   75.036  -11.316
  27.959   75.065  -12.136
  27.525   75.099  -12.923
  27.031   75.138  -13.674
  26.479   75.182  -14.382
  25.870   75.229  -15.043
  25.208   75.281  -15.650
  24.498   75.337  -16.199
  23.743   75.397  -16.684
  22.948   75.459  -17.105
  22.119   75.524  -17.460
  21.262   75.592  -17.751
  20.382   75.661  -17.982
  19.485   75.731  -18.162
  18.576   75.803  -18.297
  17.658   75.875  -18.397
  16.735   75.948  -18.470
  15.809   76.020  -18.524
  14.879   76.094  -18.564
  13.947   76.167  -18.596
  13.013   76.240  -18.621
  12.078   76.314  -18.642
  11.143   76.387  -18.657
  10.207   76.461  -18.669
   9.269   76.535  -18.683
   8.333   76.608  -18.691
   7.396   76.682  -18.698
   6.460   76.756  -18.704
   5.525   76.829  -18.710
   4.589   76.903  -18.717
   3.653   76.976  -18.723
   2.717   77.050  -18.731
   1.779   77.124  -18.738
   0.838   77.198  -18.747
  -0.106   77.272  -18.755
  -1.056   77.347  -18.765
  -2.012   77.422  -18.774
  -2.975   77.497  -18.783
  -3.945   77.574  -18.793
  -4.922   77.651  -18.803
  -5.905   77.728  -18.813
  -6.893   77.805  -18.823
  -7.885   77.883  -18.833
  -8.880   77.962  -18.844
  -9.877   78.040  -18.855
 -10.878   78.119  -18.867
 -11.884   78.197  -18.878
 -12.885   78.276  -18.890
 -13.884   78.354  -18.902
 -14.884   78.433  -18.913
 -15.884   78.511  -18.925
 -16.884   78.589  -18.936
 -17.884   78.668  -18.947
 -18.883   78.747  -18.958
 -19.882   78.825  -18.968
 -20.883   78.904  -18.978
 -21.884   78.983  -18.986
 -22.887   79.062  -18.993
 -23.891   79.142  -18.997
 -24.897   79.221  -18.997
 -25.906   79.300  -18.988
 -26.915   79.380  -18.970
 -27.920   79.459  -18.932
 -28.918   79.537  -18.867
 -29.905   79.615  -18.765
 -30.876   79.691  -18.615
 -31.825   79.766  -18.406
 -32.745   79.838  -18.127
 -33.629   79.908  -17.772
 -34.470   79.974  -17.336
 -35.261   80.036  -16.818
 -35.999   80.094  -16.221
 -36.681   80.148  -15.552
 -37.305   80.197  -14.818
 -37.870   80.241  -14.028
 -38.378   80.281  -13.192
 -38.828   80.316  -12.318
 -39.220   80.347  -11.414
 -39.556   80.374  -10.484
 -39.825   80.396   -9.535
 -40.056   80.413   -8.570
 -40.228   80.426   -7.593
 -40.343   80.436   -6.606
 -40.409   80.441   -5.613
 -40.419   80.442   -4.615
 -40.410   80.441   -3.615
 -40.356   80.437   -2.614
 -40.273   80.430   -1.612
 -40.169   80.422   -0.608
 -40.049   80.412    0.392
 -39.918   80.402    1.389
 -39.780   80.391    2.389
 -39.640   80.380    3.388
 -39.500   80.369    4.387
 -39.363   80.358    5.387
 -39.231   80.348    6.387
 -39.106   80.338    7.388
 -38.987   80.329    8.389
 -38.876   80.320    9.392
 -38.773   80.312   10.395
 -38.677   80.305   11.399
 -38.590   80.298   12.403
 -38.510   80.291   13.408
 -38.439   80.286   14.414
 -38.375   80.281   15.420
 -38.318   80.276   16.427
 -38.270   80.273   17.435
 -38.229   80.269   18.443
 -38.195   80.267   19.451
 -38.168   80.265   20.460
 -38.148   80.263   21.470
 -38.133   80.262   22.479
 -38.122   80.261   23.488
 -38.116   80.260   24.498
 -38.114   80.260   25.508
 -38.114   80.260   26.517
 -38.116   80.260   27.527
 -38.119   80.261   28.537
 -38.121   80.261   29.547
 -38.123   80.261   30.558
 -38.124   80.261   31.570
 -38.124   80.261   32.584
 -38.123   80.261   33.579
 -38.122   80.261   34.558
 -38.122   80.261   35.526
 -38.124   80.261   36.484
 -38.130   80.261   37.438
 -38.141   80.262   38.388
 -38.688   81.286   38.645
 -38.755   81.291   40.606
 -38.802   81.295   41.652
 -38.856   81.299   42.738
 -38.914   81.304   43.859
 -38.975   81.308   45.012
 -39.033   81.313   46.192
 -39.085   81.317   47.396
 -39.127   81.320   48.599
 -39.153   81.322   49.800
 -39.157   81.323   50.997
 -39.152   81.322   52.191
 -39.122   81.320   53.383
 -39.072   81.316   54.573
 -39.004   81.311   55.761
 -38.921   81.304   56.948
 -38.822   81.296   58.134
 -38.710   81.287   59.318
 -38.586   81.278   60.502
 -38.453   81.267   61.684
 -38.312   81.256   62.866
 -38.161   81.244   64.049
 -37.999   81.232   65.232
 -37.830   81.218   66.419
 -37.655   81.204   67.611
 -37.474   81.190   68.807
 -37.215   81.176   70.011
 -36.725   81.138   70.841
 -36.234   81.099   70.841
 -35.744   81.061   70.841
 -35.254   81.023   70.841
 -34.763   80.985   70.841
 -34.273   80.946   70.841
 -33.783   80.908   70.841
 -33.293   80.870   70.841
 -32.802   80.832   70.841
 -32.312   80.793   70.841
 -31.822   80.755   70.841
 -31.331   80.717   70.841
 -30.841   80.679   70.841
 -30.352   80.640   70.841
 -29.863   80.602   70.841
 -29.374   80.564   70.841
 -28.886   80.526   70.841
 -28.405   80.488   70.841
 -27.926   80.449   70.841
 -27.449   80.411   70.841
 -26.971   80.373   70.841
 -26.494   80.335   70.841
 -26.016   80.296   70.841
 -25.539   80.258   70.841
 -25.061   80.220   70.841
 -24.583   80.182   70.841
 -24.103   80.143   70.841
 -23.623   80.105   70.841
 -23.144   80.067   70.841
 -22.664   80.029   70.841
 -22.184   79.990   70.841
 -21.704   79.952   70.841
 -21.224   79.914   70.841
 -20.744   79.876   70.841
 -20.264   79.838   70.841
 -19.783   79.799   70.841
 -19.297   79.761   70.841
 -18.810   79.723   70.841
 -18.324   79.685   70.841
 -17.838   79.646   70.841
 -17.351   79.608   70.841
 -16.865   79.570   70.841
 -16.379   79.532   70.841
 -15.893   79.493   70.841
 -15.406   79.455   70.841
 -14.920   79.417   70.841
 -14.434   79.379   70.841
 -13.947   79.340   70.841
 -13.461   79.302   70.841
 -12.975   79.264   70.841
 -12.488   79.226   70.841
 -12.002   79.188   70.841
 -11.516   79.149   70.841
 -11.030   79.111   70.841
 -10.543   79.073   70.841
 -10.057   79.035   70.841
  -9.571   78.996   70.841
  -9.084   78.958   70.841
  -8.598   78.920   70.841
  -8.112   78.882   70.841
  -7.626   78.843   70.841
  -7.139   78.805   70.841
  -6.653   78.767   70.841
  -6.167   78.729   70.841
  -5.680   78.690   70.841
  -5.194   78.652   70.841
  -4.708   78.614   70.841
  -4.221   78.576   70.841
  -3.735   78.538   70.841
  -3.249   78.499   70.841
  -2.763   78.461   70.841
  -2.276   78.423   70.841
  -1.790   78.385   70.841
  -1.304   78.346   70.841
  -0.817   78.308   70.841
  -0.331   78.270   70.841
   0.155   78.232   70.841
   0.641   78.193   70.841
   1.128   78.155   70.841
   1.614   78.117   70.841
   2.100   78.079   70.841
   2.587   78.040   70.841
   3.073   78.002   70.841
   3.559   77.964   70.841
   4.046   77.926   70.841
   4.532   77.888   70.841
   5.018   77.849   70.841
   5.504   77.811   70.841
   5.991   77.773   70.841
   6.477   77.735   70.841
   6.963   77.696   70.841
   7.450   77.658   70.841
   7.936   77.620   70.841
   8.422   77.582   70.841
   8.908   77.543   70.841
   9.395   77.505   70.841
   9.881   77.467   70.841
  10.367   77.429   70.841
  10.854   77.390   70.841
  11.340   77.352   70.841
  11.826   77.314   70.841
  12.313   77.276   70.841
  12.797   77.238   70.841
  13.277   77.199   70.841
  13.757   77.161   70.841
  14.237   77.123   70.841
  14.716   77.085   70.841
  15.196   77.046   70.841
  15.676   77.008   70.841
  16.156   76.970   70.841
  16.636   76.932   70.841
  17.116   76.893   70.841
  17.596   76.855   70.841
  18.075   76.817   70.841
  18.553   76.779   70.841
  19.030   76.740   70.841
  19.508   76.702   70.841
  19.985   76.664   70.841
  20.463   76.626   70.841
  20.942   76.588   70.841
  21.431   76.549   70.841
  21.921   76.511   70.841
  22.411   76.473   70.841
  22.902   76.435   70.841
  22.999   76.435   69.436
  22.989   76.436   68.313
  22.970   76.438   67.190
  22.947   76.440   66.069
  22.921   76.442   64.949
  22.888   76.444   63.830
  22.850   76.447   62.713
  22.809   76.451   61.598
  22.766   76.454   60.485
  22.725   76.457   59.373
  22.685   76.460   58.264
  22.652   76.463   57.156
  22.632   76.464   56.050
  22.623   76.465   54.945
  22.620   76.465   53.841
  22.620   76.465   52.738
  22.621   76.465   51.635
  22.623   76.465   50.531
  22.623   76.465   49.427
  22.623   76.465   48.322
  22.623   76.465   47.216
  22.626   76.465   46.111
  22.638   76.464   45.007
  22.658   76.462   43.906
  22.691   76.460   42.812
  22.736   76.456   41.729
  22.794   76.452   40.660
  22.861   76.446   39.608
  22.936   76.440   38.576
  23.014   76.434   37.565
  23.092   76.428   36.575
  23.171   76.422   35.603
  23.248   76.416   34.647
  23.325   76.410   33.701
  23.406   76.404   32.764
  23.495   76.397   31.831
  23.598   76.388   30.902
  23.716   76.379   29.974
  23.845   76.369   29.046
  23.984   76.358   28.119
  24.133   76.346   27.192
  24.286   76.334   26.266
  24.443   76.322   25.340
  24.599   76.310   24.415
  24.756   76.297   23.490
  24.913   76.285   22.566
  25.073   76.272   21.643
  25.233   76.260   20.720
  25.395   76.247   19.798
  25.556   76.234   18.876
  25.715   76.222   17.954
  25.871   76.210   17.032
  26.021   76.198   16.109
  26.168   76.186   15.186
  26.310   76.175   14.262
  26.452   76.164   13.339
  26.598   76.153   12.417
  26.750   76.141   11.496
  26.915   76.128   10.578
  27.094   76.114    9.663
  27.289   76.098    8.750
  27.499   76.082    7.840
  27.720   76.064    6.931
  27.947   76.046    6.023
  28.177   76.028    5.114
  28.402   76.011    4.204
  28.617   75.994    3.292
  28.820   75.978    2.376
  29.006   75.963    1.458
  29.173   75.950    0.536
  29.320   75.938   -0.388
  29.446   75.929   -1.315
  29.548   75.921   -2.245
  29.623   75.915   -3.176
  29.670   75.911   -4.107
  29.676   75.910   -5.038
  29.660   75.912   -5.967
  29.595   75.917   -6.891
  29.483   75.926   -7.808
  29.320   75.939   -8.715
  29.099   75.956   -9.609
  28.831   75.977  -10.484
  28.501   76.003  -11.334
  28.114   76.033  -12.157
  27.672   76.068  -12.947
  27.175   76.107  -13.700
  26.626   76.150  -14.410
  26.026   76.198  -15.071
  25.376   76.249  -15.678
  24.678   76.303  -16.227
  23.932   76.362  -16.711
  23.141   76.424  -17.130
  22.313   76.489  -17.482
  21.451   76.557  -17.769
  20.565   76.627  -17.997
  19.659   76.698  -18.173
  18.739   76.770  -18.305
  17.816   76.843  -18.402
  16.891   76.916  -18.473
  15.966   76.989  -18.525
  15.039   77.061  -18.565
  14.110   77.134  -18.598
  13.181   77.207  -18.625
  12.249   77.281  -18.648
  11.315   77.354  -18.668
  10.377   77.428  -18.683
   9.438   77.502  -18.694
   8.498   77.576  -18.707
   7.558   77.650  -18.719
   6.621   77.723  -18.731
   5.686   77.797  -18.740
   4.751   77.870  -18.749
   3.819   77.944  -18.758
   2.887   78.017  -18.767
   1.955   78.090  -18.776
   1.019   78.164  -18.785
   0.075   78.238  -18.794
  -0.876   78.313  -18.803
  -1.837   78.388  -18.812
  -2.809   78.465  -18.821
  -3.794   78.542  -18.830
  -4.790   78.620  -18.839
  -5.795   78.700  -18.849
  -6.806   78.779  -18.858
  -7.823   78.859  -18.868
  -8.842   78.939  -18.877
  -9.862   79.019  -18.887
 -10.879   79.099  -18.898
 -11.887   79.179  -18.908
 -12.893   79.259  -18.918
 -13.897   79.339  -18.928
 -14.909   79.418  -18.938
 -15.922   79.497  -18.947
 -16.933   79.576  -18.957
 -17.943   79.655  -18.966
 -18.953   79.734  -18.975
 -19.959   79.813  -18.984
 -20.968   79.892  -18.992
 -21.979   79.972  -18.999
 -22.993   80.052  -19.005
 -24.009   80.132  -19.009
 -25.027   80.212  -19.009
 -26.044   80.292  -18.999
 -27.059   80.371  -18.984
 -28.069   80.451  -18.948
 -29.073   80.530  -18.887
 -30.065   80.608  -18.791
 -31.041   80.684  -18.648
 -31.995   80.760  -18.446
 -32.921   80.832  -18.176
 -33.810   80.902  -17.830
 -34.657   80.969  -17.401
 -35.454   81.031  -16.890
 -36.198   81.090  -16.299
 -36.885   81.144  -15.632
 -37.512   81.193  -14.899
 -38.081   81.238  -14.108
 -38.590   81.278  -13.269
 -39.041   81.313  -12.391
 -39.435   81.344  -11.481
 -39.772   81.371  -10.546
 -40.053   81.393   -9.590
 -40.262   81.411   -8.619
 -40.454   81.425   -7.635
 -40.576   81.434   -6.642
 -40.649   81.440   -5.641
 -40.670   81.442   -4.634
 -40.665   81.441   -3.623
 -40.619   81.438   -2.617
 -40.544   81.432   -1.612
 -40.447   81.424   -0.605
 -40.333   81.415    0.402
 -40.208   81.405    1.409
 -40.076   81.395    2.415
 -39.941   81.384    3.420
 -39.805   81.374    4.426
 -39.672   81.363    5.433
 -39.542   81.353    6.440
 -39.418   81.343    7.447
 -39.301   81.334    8.456
 -39.191   81.325    9.465
 -39.089   81.317   10.475
 -38.996   81.310   11.485
 -38.913   81.303   12.497
 -38.839   81.298   13.508
 -38.776   81.293   14.521
 -38.724   81.289   15.534
 -38.681   81.285   16.547
 -38.649   81.283   17.561
 -38.625   81.281   18.575
 -38.609   81.280   19.590
 -38.599   81.279   20.605
 -38.592   81.278   21.620
 -38.589   81.278   22.635
 -38.587   81.278   23.650
 -38.586   81.278   24.666
 -38.586   81.278   25.681
 -38.587   81.278   26.697
 -38.590   81.278   27.712
 -38.594   81.278   28.728
 -38.599   81.279   29.744
 -38.606   81.279   30.761
 -38.612   81.280   31.778
 -38.619   81.280   32.799
 -38.625   81.281   33.800
 -38.632   81.281   34.786
 -38.640   81.282   35.760
 -38.651   81.283   36.726
 -38.666   81.284   37.687
 -38.688   81.286   38.645
 -39.243   82.310   38.931
 -39.348   82.318   40.912
 -39.414   82.323   41.970
 -39.488   82.329   43.069
 -39.567   82.335   44.205
 -39.647   82.341   45.376
 -39.722   82.347   46.577
 -39.789   82.353   47.806
 -39.841   82.357   49.038
 -39.876   82.359   50.271
 -39.884   82.361   51.504
 -39.880   82.360   52.739
 -39.848   82.357   53.973
 -39.793   82.353   55.207
 -39.717   82.347   56.442
 -39.623   82.340   57.676
 -39.514   82.331   58.909
 -39.391   82.321   60.141
 -39.258   82.311   61.373
 -39.115   82.300   62.602
 -38.965   82.288   63.829
 -38.806   82.275   65.051
 -38.640   82.262   66.268
 -38.468   82.249   67.479
 -38.290   82.235   68.687
 -38.109   82.221   69.892
 -37.618   82.182   70.841
 -37.196   82.143   70.841
 -36.698   82.105   70.841
 -36.202   82.066   70.841
 -35.706   82.028   70.841
 -35.210   81.989   70.841
 -34.714   81.950   70.841
 -34.218   81.912   70.841
 -33.722   81.873   70.841
 -33.226   81.835   70.841
 -32.730   81.796   70.841
 -32.234   81.757   70.841
 -31.738   81.719   70.841
 -31.242   81.680   70.841
 -30.746   81.641   70.841
 -30.253   81.603   70.841
 -29.762   81.564   70.841
 -29.271   81.526   70.841
 -28.780   81.487   70.841
 -28.289   81.448   70.841
 -27.798   81.410   70.841
 -27.307   81.371   70.841
 -26.816   81.333   70.841
 -26.325   81.294   70.841
 -25.834   81.255   70.841
 -25.343   81.217   70.841
 -24.852   81.178   70.841
 -24.361   81.140   70.841
 -23.870   81.101   70.841
 -23.379   81.062   70.841
 -22.888   81.024   70.841
 -22.397   80.985   70.841
 -21.906   80.947   70.841
 -21.415   80.908   70.841
 -20.924   80.869   70.841
 -20.433   80.831   70.841
 -19.942   80.792   70.841
 -19.451   80.754   70.841
 -18.960   80.715   70.841
 -18.469   80.676   70.841
 -17.978   80.638   70.841
 -17.486   80.599   70.841
 -16.995   80.560   70.841
 -16.504   80.522   70.841
 -16.013   80.483   70.841
 -15.522   80.445   70.841
 -15.031   80.406   70.841
 -14.540   80.367   70.841
 -14.049   80.329   70.841
 -13.558   80.290   70.841
 -13.067   80.252   70.841
 -12.576   80.213   70.841
 -12.085   80.174   70.841
 -11.594   80.136   70.841
 -11.103   80.097   70.841
 -10.612   80.059   70.841
 -10.121   80.020   70.841
  -9.630   79.981   70.841
  -9.139   79.943   70.841
  -8.648   79.904   70.841
  -8.156   79.866   70.841
  -7.659   79.827   70.841
  -7.161   79.788   70.841
  -6.666   79.750   70.841
  -6.178   79.711   70.841
  -5.689   79.673   70.841
  -5.201   79.634   70.841
  -4.713   79.595   70.841
  -4.225   79.557   70.841
  -3.736   79.518   70.841
  -3.247   79.479   70.841
  -2.756   79.441   70.841
  -2.265   79.402   70.841
  -1.774   79.364   70.841
  -1.283   79.325   70.841
  -0.792   79.286   70.841
  -0.301   79.248   70.841
   0.190   79.209   70.841
   0.681   79.171   70.841
   1.172   79.132   70.841
   1.663   79.093   70.841
   2.154   79.055   70.841
   2.645   79.016   70.841
   3.136   78.978   70.841
   3.628   78.939   70.841
   4.119   78.900   70.841
   4.610   78.862   70.841
   5.101   78.823   70.841
   5.592   78.785   70.841
   6.083   78.746   70.841
   6.574   78.707   70.841
   7.065   78.669   70.841
   7.556   78.630   70.841
   8.047   78.592   70.841
   8.538   78.553   70.841
   9.029   78.514   70.841
   9.520   78.476   70.841
  10.011   78.437   70.841
  10.502   78.398   70.841
  10.993   78.360   70.841
  11.484   78.321   70.841
  11.975   78.283   70.841
  12.466   78.244   70.841
  12.957   78.205   70.841
  13.448   78.167   70.841
  13.939   78.128   70.841
  14.433   78.090   70.841
  14.931   78.051   70.841
  15.428   78.012   70.841
  15.926   77.974   70.841
  16.423   77.935   70.841
  16.921   77.897   70.841
  17.418   77.858   70.841
  17.916   77.819   70.841
  18.413   77.781   70.841
  18.910   77.742   70.841
  19.408   77.704   70.841
  19.905   77.665   70.841
  20.403   77.626   70.841
  20.900   77.588   70.841
  21.398   77.549   70.841
  21.891   77.511   70.841
  22.383   77.472   70.841
  22.876   77.433   70.841
  23.268   77.395   70.841
  23.756   77.356   70.841
  23.754   77.356   68.687
  23.742   77.357   67.564
  23.725   77.359   66.442
  23.705   77.360   65.321
  23.683   77.362   64.201
  23.658   77.364   63.083
  23.631   77.366   61.966
  23.602   77.368   60.851
  23.571   77.371   59.737
  23.540   77.373   58.625
  23.510   77.376   57.515
  23.481   77.378   56.406
  23.453   77.380   55.297
  23.428   77.382   54.190
  23.403   77.384   53.082
  23.381   77.386   51.975
  23.361   77.387   50.866
  23.344   77.389   49.757
  23.330   77.390   48.647
  23.321   77.391   47.537
  23.321   77.391   46.427
  23.326   77.390   45.318
  23.340   77.389   44.212
  23.363   77.387   43.112
  23.397   77.385   42.022
  23.440   77.381   40.946
  23.493   77.377   39.887
  23.555   77.372   38.846
  23.625   77.367   37.826
  23.702   77.361   36.827
  23.783   77.354   35.846
  23.866   77.348   34.880
  23.951   77.341   33.927
  24.038   77.334   32.982
  24.127   77.327   32.044
  24.220   77.320   31.109
  24.318   77.312   30.175
  24.422   77.304   29.243
  24.535   77.295   28.312
  24.654   77.286   27.381
  24.781   77.276   26.451
  24.914   77.265   25.521
  25.052   77.254   24.592
  25.195   77.243   23.663
  25.343   77.232   22.736
  25.494   77.220   21.809
  25.647   77.208   20.882
  25.802   77.196   19.957
  25.956   77.183   19.031
  26.109   77.171   18.105
  26.258   77.160   17.179
  26.404   77.148   16.252
  26.547   77.137   15.325
  26.687   77.126   14.397
  26.828   77.115   13.469
  26.972   77.103   12.542
  27.125   77.091   11.617
  27.287   77.079   10.694
  27.462   77.065    9.773
  27.650   77.050    8.855
  27.850   77.034    7.938
  28.060   77.018    7.024
  28.275   77.001    6.109
  28.490   76.984    5.194
  28.699   76.968    4.278
  28.898   76.952    3.359
  29.085   76.937    2.438
  29.257   76.924    1.513
  29.411   76.912    0.586
  29.547   76.901   -0.344
  29.664   76.892   -1.277
  29.759   76.884   -2.211
  29.832   76.879   -3.147
  29.877   76.875   -4.084
  29.883   76.874   -5.020
  29.869   76.876   -5.954
  29.805   76.881   -6.883
  29.695   76.889   -7.804
  29.524   76.902   -8.714
  29.320   76.919   -9.610
  29.047   76.940  -10.485
  28.714   76.967  -11.339
  28.321   76.997  -12.164
  27.869   77.033  -12.956
  27.359   77.073  -13.710
  26.794   77.117  -14.421
  26.176   77.166  -15.084
  25.507   77.219  -15.692
  24.793   77.275  -16.241
  24.036   77.334  -16.725
  23.239   77.397  -17.143
  22.408   77.462  -17.494
  21.547   77.530  -17.780
  20.662   77.600  -18.006
  19.761   77.670  -18.179
  18.846   77.742  -18.308
  17.923   77.815  -18.403
  16.994   77.888  -18.473
  16.063   77.961  -18.524
  15.132   78.034  -18.564
  14.199   78.108  -18.597
  13.264   78.181  -18.625
  12.328   78.255  -18.648
  11.392   78.329  -18.668
  10.455   78.402  -18.686
   9.516   78.476  -18.704
   8.577   78.550  -18.718
   7.639   78.624  -18.731
   6.703   78.697  -18.741
   5.768   78.771  -18.752
   4.834   78.844  -18.765
   3.901   78.917  -18.777
   2.969   78.991  -18.788
   2.035   79.064  -18.799
   1.098   79.138  -18.810
   0.153   79.212  -18.820
  -0.799   79.287  -18.829
  -1.760   79.363  -18.839
  -2.733   79.439  -18.848
  -3.718   79.516  -18.856
  -4.713   79.595  -18.865
  -5.719   79.674  -18.874
  -6.730   79.753  -18.883
  -7.747   79.833  -18.893
  -8.767   79.914  -18.902
  -9.790   79.994  -18.911
 -10.812   80.074  -18.921
 -11.833   80.155  -18.930
 -12.853   80.235  -18.939
 -13.872   80.315  -18.948
 -14.890   80.395  -18.957
 -15.907   80.475  -18.966
 -16.923   80.555  -18.974
 -17.940   80.635  -18.983
 -18.955   80.715  -18.991
 -19.973   80.795  -18.998
 -20.993   80.875  -19.005
 -22.014   80.955  -19.012
 -23.036   81.035  -19.017
 -24.059   81.116  -19.020
 -25.085   81.197  -19.020
 -26.110   81.277  -19.011
 -27.134   81.358  -18.997
 -28.153   81.438  -18.963
 -29.166   81.517  -18.905
 -30.169   81.596  -18.812
 -31.157   81.674  -18.674
 -32.120   81.750  -18.478
 -33.056   81.823  -18.214
 -33.956   81.894  -17.874
 -34.813   81.961  -17.451
 -35.621   82.025  -16.945
 -36.374   82.084  -16.356
 -37.067   82.139  -15.691
 -37.702   82.189  -14.957
 -38.274   82.234  -14.163
 -38.786   82.274  -13.319
 -39.238   82.309  -12.435
 -39.631   82.340  -11.519
 -39.967   82.367  -10.576
 -40.248   82.389   -9.612
 -40.463   82.407   -8.631
 -40.652   82.420   -7.639
 -40.778   82.430   -6.644
 -40.856   82.437   -5.641
 -40.889   82.439   -4.631
 -40.888   82.439   -3.619
 -40.851   82.436   -2.604
 -40.785   82.431   -1.589
 -40.697   82.424   -0.574
 -40.593   82.416    0.440
 -40.476   82.407    1.455
 -40.352   82.397    2.469
 -40.225   82.387    3.482
 -40.098   82.377    4.495
 -39.972   82.367    5.509
 -39.851   82.358    6.522
 -39.736   82.348    7.537
 -39.628   82.340    8.552
 -39.528   82.332    9.567
 -39.437   82.325   10.584
 -39.355   82.319   11.601
 -39.283   82.313   12.619
 -39.220   82.308   13.637
 -39.165   82.304   14.656
 -39.118   82.300   15.675
 -39.078   82.297   16.695
 -39.043   82.294   17.715
 -39.015   82.292   18.735
 -38.992   82.290   19.755
 -38.975   82.289   20.776
 -38.963   82.288   21.797
 -38.956   82.287   22.818
 -38.956   82.287   23.839
 -38.959   82.287   24.861
 -38.968   82.288   25.882
 -38.980   82.289   26.903
 -38.995   82.290   27.924
 -39.011   82.291   28.946
 -39.028   82.293   29.968
 -39.045   82.294   30.990
 -39.063   82.296   32.013
 -39.082   82.297   33.040
 -39.100   82.299   34.048
 -39.121   82.300   35.041
 -39.143   82.302   36.022
 -39.171   82.304   36.995
 -39.203   82.307   37.964
 -39.243   82.310   38.931
 -39.857   83.338   39.224
 -39.985   83.348   41.221
 -40.063   83.355   42.288
 -40.148   83.361   43.397
 -40.238   83.368   44.545
 -40.328   83.375   45.727
 -40.412   83.382   46.942
 -40.488   83.388   48.184
 -40.547   83.393   49.430
 -40.587   83.396   50.678
 -40.602   83.397   51.927
 -40.599   83.397   53.177
 -40.569   83.394   54.428
 -40.517   83.390   55.680
 -40.442   83.384   56.935
 -40.349   83.377   58.191
 -40.239   83.368   59.449
 -40.113   83.358   60.710
 -39.974   83.348   61.973
 -39.823   83.336   63.237
 -39.662   83.323   64.502
 -39.493   83.310   65.767
 -39.318   83.296   67.033
 -39.139   83.282   68.300
 -38.959   83.268   69.567
 -38.728   83.254   70.836
 -38.219   83.214   70.841
 -37.711   83.175   70.841
 -37.210   83.135   70.841
 -36.709   83.096   70.841
 -36.212   83.056   70.841
 -35.715   83.017   70.841
 -35.218   82.977   70.841
 -34.721   82.938   70.841
 -34.224   82.898   70.841
 -33.727   82.859   70.841
 -33.230   82.819   70.841
 -32.733   82.780   70.841
 -32.237   82.741   70.841
 -31.740   82.701   70.841
 -31.243   82.662   70.841
 -30.746   82.622   70.841
 -30.245   82.583   70.841
 -29.743   82.543   70.841
 -29.241   82.504   70.841
 -28.739   82.464   70.841
 -28.237   82.425   70.841
 -27.735   82.385   70.841
 -27.233   82.346   70.841
 -26.731   82.306   70.841
 -26.229   82.267   70.841
 -25.727   82.227   70.841
 -25.225   82.188   70.841
 -24.723   82.148   70.841
 -24.221   82.109   70.841
 -23.719   82.069   70.841
 -23.217   82.030   70.841
 -22.715   81.991   70.841
 -22.213   81.951   70.841
 -21.711   81.912   70.841
 -21.209   81.872   70.841
 -20.707   81.833   70.841
 -20.205   81.793   70.841
 -19.703   81.754   70.841
 -19.201   81.714   70.841
 -18.698   81.675   70.841
 -18.196   81.635   70.841
 -17.694   81.596   70.841
 -17.192   81.556   70.841
 -16.690   81.517   70.841
 -16.188   81.477   70.841
 -15.686   81.438   70.841
 -15.183   81.398   70.841
 -14.677   81.359   70.841
 -14.171   81.319   70.841
 -13.665   81.280   70.841
 -13.159   81.241   70.841
 -12.653   81.201   70.841
 -12.147   81.162   70.841
 -11.641   81.122   70.841
 -11.134   81.083   70.841
 -10.634   81.043   70.841
 -10.138   81.004   70.841
  -9.643   80.964   70.841
  -9.147   80.925   70.841
  -8.652   80.885   70.841
  -8.156   80.846   70.841
  -7.654   80.806   70.841
  -7.152   80.767   70.841
  -6.650   80.727   70.841
  -6.148   80.688   70.841
  -5.646   80.648   70.841
  -5.143   80.609   70.841
  -4.641   80.569   70.841
  -4.139   80.530   70.841
  -3.637   80.491   70.841
  -3.135   80.451   70.841
  -2.633   80.412   70.841
  -2.131   80.372   70.841
  -1.629   80.333   70.841
  -1.127   80.293   70.841
  -0.625   80.254   70.841
  -0.123   80.214   70.841
   0.379   80.175   70.841
   0.881   80.135   70.841
   1.383   80.096   70.841
   1.885   80.056   70.841
   2.387   80.017   70.841
   2.889   79.977   70.841
   3.391   79.938   70.841
   3.893   79.898   70.841
   4.395   79.859   70.841
   4.897   79.819   70.841
   5.399   79.780   70.841
   5.901   79.741   70.841
   6.403   79.701   70.841
   6.905   79.662   70.841
   7.407   79.622   70.841
   7.910   79.583   70.841
   8.412   79.543   70.841
   8.914   79.504   70.841
   9.416   79.464   70.841
   9.918   79.425   70.841
  10.420   79.385   70.841
  10.922   79.346   70.841
  11.424   79.306   70.841
  11.926   79.267   70.841
  12.428   79.227   70.841
  12.930   79.188   70.841
  13.432   79.148   70.841
  13.934   79.109   70.841
  14.436   79.069   70.841
  14.938   79.030   70.841
  15.440   78.991   70.841
  15.942   78.951   70.841
  16.444   78.912   70.841
  16.946   78.872   70.841
  17.448   78.833   70.841
  17.950   78.793   70.841
  18.452   78.754   70.841
  18.954   78.714   70.841
  19.456   78.675   70.841
  19.958   78.635   70.841
  20.460   78.596   70.841
  20.962   78.556   70.841
  21.465   78.517   70.841
  21.967   78.477   70.841
  22.469   78.438   70.841
  22.971   78.398   70.841
  23.473   78.359   70.841
  23.975   78.320   70.841
  24.477   78.280   70.841
  24.479   78.280   68.979
  24.478   78.280   67.860
  24.472   78.280   66.742
  24.462   78.281   65.624
  24.448   78.282   64.507
  24.428   78.284   63.391
  24.403   78.286   62.276
  24.372   78.288   61.163
  24.335   78.291   60.050
  24.296   78.294   58.939
  24.255   78.297   57.829
  24.216   78.301   56.720
  24.179   78.303   55.611
  24.146   78.306   54.502
  24.117   78.308   53.393
  24.092   78.310   52.284
  24.070   78.312   51.174
  24.051   78.313   50.064
  24.034   78.315   48.953
  24.020   78.316   47.841
  24.009   78.317   46.730
  24.003   78.317   45.620
  24.002   78.317   44.512
  24.006   78.317   43.410
  24.018   78.316   42.317
  24.039   78.314   41.236
  24.069   78.312   40.170
  24.110   78.309   39.122
  24.160   78.305   38.094
  24.218   78.300   37.087
  24.281   78.295   36.097
  24.349   78.290   35.123
  24.419   78.285   34.163
  24.492   78.279   33.211
  24.568   78.273   32.266
  24.648   78.267   31.326
  24.735   78.260   30.388
  24.829   78.252   29.451
  24.932   78.244   28.515
  25.044   78.235   27.580
  25.163   78.226   26.646
  25.290   78.216   25.712
  25.424   78.206   24.779
  25.564   78.195   23.846
  25.709   78.183   22.915
  25.860   78.171   21.984
  26.015   78.159   21.054
  26.171   78.147   20.125
  26.327   78.135   19.196
  26.480   78.123   18.267
  26.627   78.111   17.337
  26.767   78.100   16.406
  26.901   78.089   15.474
  27.031   78.079   14.542
  27.160   78.069   13.609
  27.292   78.059   12.677
  27.432   78.048   11.747
  27.584   78.036   10.819
  27.750   78.023    9.893
  27.929   78.009    8.969
  28.121   77.993    8.047
  28.323   77.978    7.126
  28.529   77.961    6.205
  28.736   77.945    5.284
  28.937   77.929    4.361
  29.129   77.914    3.436
  29.308   77.900    2.508
  29.473   77.887    1.578
  29.620   77.876    0.645
  29.750   77.865   -0.291
  29.861   77.857   -1.229
  29.952   77.850   -2.168
  30.019   77.844   -3.109
  30.062   77.841   -4.051
  30.067   77.840   -4.992
  30.052   77.842   -5.930
  29.990   77.847   -6.864
  29.866   77.855   -7.790
  29.708   77.867   -8.706
  29.515   77.884   -9.608
  29.244   77.905  -10.485
  28.913   77.931  -11.340
  28.519   77.962  -12.168
  28.064   77.998  -12.962
  27.548   78.039  -13.718
  26.975   78.084  -14.431
  26.347   78.133  -15.095
  25.669   78.186  -15.704
  24.943   78.243  -16.253
  24.174   78.304  -16.738
  23.367   78.367  -17.155
  22.526   78.433  -17.505
  21.656   78.502  -17.789
  20.763   78.572  -18.013
  19.854   78.643  -18.183
  18.934   78.716  -18.310
  18.006   78.789  -18.403
  17.074   78.862  -18.471
  16.142   78.935  -18.520
  15.200   79.009  -18.558
  14.257   79.082  -18.589
  13.313   79.156  -18.617
  12.368   79.229  -18.642
  11.425   79.303  -18.664
  10.486   79.377  -18.685
   9.547   79.450  -18.704
   8.608   79.524  -18.720
   7.670   79.598  -18.736
   6.734   79.672  -18.750
   5.799   79.745  -18.764
   4.865   79.818  -18.776
   3.932   79.892  -18.788
   3.000   79.965  -18.799
   2.066   80.039  -18.810
   1.129   80.112  -18.820
   0.184   80.186  -18.830
  -0.768   80.261  -18.839
  -1.729   80.337  -18.848
  -2.702   80.413  -18.857
  -3.686   80.491  -18.866
  -4.682   80.569  -18.875
  -5.689   80.648  -18.884
  -6.703   80.728  -18.893
  -7.723   80.809  -18.902
  -8.748   80.890  -18.911
  -9.774   80.971  -18.921
 -10.800   81.052  -18.930
 -11.826   81.134  -18.939
 -12.849   81.214  -18.949
 -13.869   81.295  -18.958
 -14.887   81.375  -18.966
 -15.904   81.455  -18.975
 -16.922   81.535  -18.983
 -17.940   81.615  -18.992
 -18.961   81.695  -19.000
 -19.987   81.776  -19.008
 -21.015   81.857  -19.015
 -22.047   81.938  -19.021
 -23.079   82.019  -19.026
 -24.111   82.100  -19.029
 -25.143   82.181  -19.029
 -26.173   82.262  -19.021
 -27.201   82.343  -19.007
 -28.226   82.424  -18.974
 -29.244   82.504  -18.917
 -30.252   82.583  -18.825
 -31.245   82.661  -18.688
 -32.218   82.738  -18.493
 -33.162   82.812  -18.229
 -34.072   82.883  -17.889
 -34.939   82.952  -17.466
 -35.758   83.016  -16.959
 -36.523   83.076  -16.370
 -37.229   83.132  -15.704
 -37.875   83.182  -14.969
 -38.458   83.228  -14.174
 -38.979   83.269  -13.329
 -39.438   83.305  -12.443
 -39.836   83.337  -11.522
 -40.173   83.363  -10.576
 -40.453   83.385   -9.610
 -40.676   83.403   -8.627
 -40.848   83.416   -7.631
 -40.968   83.426   -6.626
 -41.043   83.432   -5.614
 -41.077   83.434   -4.597
 -41.076   83.434   -3.578
 -41.044   83.432   -2.556
 -40.985   83.427   -1.535
 -40.906   83.421   -0.513
 -40.810   83.413    0.508
 -40.701   83.405    1.529
 -40.584   83.396    2.549
 -40.463   83.386    3.569
 -40.340   83.376    4.588
 -40.218   83.367    5.607
 -40.101   83.357    6.627
 -39.989   83.349    7.647
 -39.885   83.341    8.667
 -39.789   83.333    9.688
 -39.701   83.326   10.710
 -39.622   83.320   11.733
 -39.551   83.314   12.756
 -39.490   83.309   13.781
 -39.436   83.305   14.805
 -39.391   83.302   15.830
 -39.355   83.299   16.856
 -39.326   83.297   17.882
 -39.304   83.295   18.908
 -39.291   83.294   19.935
 -39.284   83.293   20.962
 -39.285   83.293   21.989
 -39.292   83.294   23.016
 -39.307   83.295   24.043
 -39.329   83.297   25.070
 -39.357   83.299   26.097
 -39.389   83.302   27.124
 -39.425   83.304   28.151
 -39.462   83.307   29.178
 -39.501   83.310   30.206
 -39.538   83.313   31.233
 -39.575   83.316   32.263
 -39.612   83.319   33.295
 -39.647   83.322   34.309
 -39.682   83.325   35.307
 -39.719   83.327   36.295
 -39.760   83.331   37.274
 -39.805   83.334   38.250
 -39.857   83.338   39.224
 -40.308   84.353   39.463
 -40.474   84.366   41.472
 -40.574   84.374   42.546
 -40.682   84.382   43.663
 -40.793   84.391   44.820
 -40.903   84.400   46.012
 -41.006   84.408   47.237
 -41.099   84.415   48.490
 -41.174   84.421   49.748
 -41.229   84.425   51.007
 -41.261   84.428   52.268
 -41.264   84.428   53.530
 -41.253   84.427   54.792
 -41.213   84.424   56.054
 -41.151   84.419   57.317
 -41.068   84.413   58.579
 -40.965   84.405   59.840
 -40.845   84.395   61.100
 -40.710   84.384   62.360
 -40.561   84.373   63.618
 -40.402   84.360   64.875
 -40.233   84.347   66.131
 -40.059   84.333   67.386
 -39.880   84.319   68.641
 -39.699   84.305   69.896
 -39.188   84.265   70.841
 -38.717   84.225   70.841
 -38.200   84.185   70.841
 -37.683   84.144   70.841
 -37.167   84.104   70.841
 -36.650   84.064   70.841
 -36.133   84.024   70.841
 -35.616   83.984   70.841
 -35.102   83.944   70.841
 -34.591   83.903   70.841
 -34.081   83.863   70.841
 -33.570   83.823   70.841
 -33.059   83.783   70.841
 -32.548   83.743   70.841
 -32.037   83.703   70.841
 -31.527   83.662   70.841
 -31.016   83.622   70.841
 -30.505   83.582   70.841
 -29.994   83.542   70.841
 -29.484   83.502   70.841
 -28.973   83.462   70.841
 -28.462   83.421   70.841
 -27.951   83.381   70.841
 -27.441   83.341   70.841
 -26.930   83.301   70.841
 -26.419   83.261   70.841
 -25.908   83.221   70.841
 -25.398   83.181   70.841
 -24.887   83.140   70.841
 -24.376   83.100   70.841
 -23.865   83.060   70.841
 -23.355   83.020   70.841
 -22.844   82.980   70.841
 -22.333   82.940   70.841
 -21.822   82.899   70.841
 -21.312   82.859   70.841
 -20.801   82.819   70.841
 -20.290   82.779   70.841
 -19.779   82.739   70.841
 -19.268   82.699   70.841
 -18.758   82.658   70.841
 -18.247   82.618   70.841
 -17.736   82.578   70.841
 -17.225   82.538   70.841
 -16.715   82.498   70.841
 -16.204   82.458   70.841
 -15.693   82.418   70.841
 -15.183   82.377   70.841
 -14.677   82.337   70.841
 -14.170   82.297   70.841
 -13.663   82.257   70.841
 -13.157   82.217   70.841
 -12.650   82.177   70.841
 -12.143   82.136   70.841
 -11.636   82.096   70.841
 -11.126   82.056   70.841
 -10.610   82.016   70.841
 -10.093   81.976   70.841
  -9.576   81.936   70.841
  -9.059   81.895   70.841
  -8.543   81.855   70.841
  -8.032   81.815   70.841
  -7.521   81.775   70.841
  -7.010   81.735   70.841
  -6.499   81.695   70.841
  -5.989   81.654   70.841
  -5.478   81.614   70.841
  -4.967   81.574   70.841
  -4.456   81.534   70.841
  -3.946   81.494   70.841
  -3.435   81.454   70.841
  -2.924   81.414   70.841
  -2.413   81.373   70.841
  -1.903   81.333   70.841
  -1.392   81.293   70.841
  -0.881   81.253   70.841
  -0.370   81.213   70.841
   0.140   81.173   70.841
   0.651   81.132   70.841
   1.162   81.092   70.841
   1.673   81.052   70.841
   2.183   81.012   70.841
   2.694   80.972   70.841
   3.205   80.932   70.841
   3.716   80.891   70.841
   4.227   80.851   70.841
   4.737   80.811   70.841
   5.248   80.771   70.841
   5.759   80.731   70.841
   6.270   80.691   70.841
   6.780   80.651   70.841
   7.291   80.610   70.841
   7.802   80.570   70.841
   8.313   80.530   70.841
   8.823   80.490   70.841
   9.334   80.450   70.841
   9.845   80.410   70.841
  10.356   80.369   70.841
  10.866   80.329   70.841
  11.377   80.289   70.841
  11.888   80.249   70.841
  12.399   80.209   70.841
  12.909   80.169   70.841
  13.420   80.128   70.841
  13.931   80.088   70.841
  14.438   80.048   70.841
  14.944   80.008   70.841
  15.449   79.968   70.841
  15.955   79.928   70.841
  16.464   79.887   70.841
  16.981   79.847   70.841
  17.498   79.807   70.841
  18.014   79.767   70.841
  18.528   79.727   70.841
  19.039   79.687   70.841
  19.549   79.647   70.841
  20.060   79.606   70.841
  20.571   79.566   70.841
  21.082   79.526   70.841
  21.592   79.486   70.841
  22.103   79.446   70.841
  22.614   79.406   70.841
  23.125   79.365   70.841
  23.635   79.325   70.841
  24.146   79.285   70.841
  24.657   79.245   70.841
  25.168   79.205   70.841
  25.175   79.204   69.252
  25.175   79.204   68.135
  25.172   79.204   67.018
  25.162   79.205   65.902
  25.147   79.206   64.787
  25.124   79.208   63.672
  25.096   79.210   62.557
  25.060   79.213   61.444
  25.020   79.216   60.331
  24.977   79.220   59.218
  24.934   79.223   58.106
  24.891   79.227   56.995
  24.851   79.230   55.883
  24.814   79.233   54.771
  24.781   79.235   53.659
  24.750   79.238   52.547
  24.721   79.240   51.435
  24.695   79.242   50.322
  24.671   79.244   49.209
  24.650   79.246   48.096
  24.632   79.247   46.983
  24.619   79.248   45.871
  24.612   79.249   44.761
  24.612   79.248   43.656
  24.620   79.248   42.559
  24.638   79.246   41.473
  24.664   79.244   40.401
  24.698   79.242   39.347
  24.738   79.239   38.311
  24.782   79.235   37.295
  24.825   79.232   36.297
  24.868   79.228   35.315
  24.910   79.225   34.347
  24.952   79.222   33.390
  24.998   79.218   32.439
  25.051   79.214   31.494
  25.115   79.209   30.552
  25.193   79.203   29.612
  25.285   79.196   28.672
  25.392   79.187   27.734
  25.511   79.178   26.796
  25.640   79.168   25.858
  25.777   79.157   24.922
  25.921   79.146   23.986
  26.071   79.134   23.051
  26.227   79.122   22.118
  26.387   79.109   21.185
  26.548   79.096   20.253
  26.708   79.084   19.321
  26.862   79.072   18.389
  27.007   79.060   17.456
  27.142   79.050   16.522
  27.266   79.040   15.587
  27.383   79.031   14.651
  27.497   79.022   13.715
  27.615   79.012   12.779
  27.744   79.002   11.844
  27.886   78.991   10.912
  28.046   78.978    9.981
  28.221   78.965    9.052
  28.409   78.950    8.125
  28.607   78.934    7.198
  28.807   78.919    6.272
  29.005   78.903    5.345
  29.195   78.888    4.416
  29.375   78.874    3.486
  29.543   78.861    2.552
  29.696   78.849    1.617
  29.835   78.838    0.679
  29.957   78.828   -0.262
  30.061   78.820   -1.204
  30.145   78.813   -2.148
  30.207   78.809   -3.093
  30.241   78.806   -4.038
  30.243   78.806   -4.982
  30.212   78.808   -5.923
  30.139   78.814   -6.860
  30.003   78.823   -7.790
  29.854   78.836   -8.707
  29.634   78.854   -9.611
  29.356   78.875  -10.495
  29.020   78.902  -11.354
  28.625   78.933  -12.185
  28.169   78.969  -12.982
  27.654   79.009  -13.740
  27.081   79.054  -14.453
  26.453   79.104  -15.118
  25.773   79.157  -15.726
  25.044   79.215  -16.275
  24.271   79.275  -16.758
  23.459   79.339  -17.173
  22.613   79.406  -17.520
  21.737   79.475  -17.802
  20.838   79.545  -18.023
  19.920   79.617  -18.191
  18.988   79.691  -18.316
  18.046   79.765  -18.406
  17.097   79.839  -18.471
  16.145   79.914  -18.520
  15.199   79.989  -18.558
  14.254   80.064  -18.589
  13.309   80.139  -18.617
  12.362   80.215  -18.641
  11.414   80.290  -18.663
  10.462   80.365  -18.684
   9.508   80.440  -18.702
   8.554   80.515  -18.720
   7.600   80.590  -18.735
   6.646   80.665  -18.750
   5.691   80.740  -18.764
   4.737   80.815  -18.777
   3.783   80.890  -18.788
   2.829   80.965  -18.800
   1.873   81.040  -18.810
   0.915   81.115  -18.820
  -0.048   81.191  -18.830
  -1.016   81.267  -18.839
  -1.991   81.344  -18.848
  -2.974   81.421  -18.858
  -3.968   81.499  -18.867
  -4.970   81.578  -18.877
  -5.980   81.657  -18.886
  -6.995   81.736  -18.896
  -8.017   81.816  -18.906
  -9.043   81.896  -18.916
 -10.071   81.976  -18.926
 -11.096   82.056  -18.936
 -12.114   82.136  -18.946
 -13.132   82.216  -18.955
 -14.157   82.297  -18.965
 -15.182   82.377  -18.974
